# .PCD v0.7 - Point Cloud Data file format
VERSION 0.7
FIELDS x y z rgb
SIZE 4 4 4 4
TYPE F F F F
COUNT 1 1 1 1
WIDTH 1032
HEIGHT 1
VIEWPOINT 8.7481 7.51 4.5662 0.9939 -0.0280019 -0.00824962 -0.106355
POINTS 1032
DATA ascii
4.1440163 0.43505943 0.049200173 1.4290323e-38
4.1625404 0.43304649 0.069878936 1.2999584e-38
3.8823342 0.42995992 0.10169563 1.2354214e-38
4.1992717 0.42896581 0.11179928 1.2722997e-38
3.8836074 0.42605731 0.14179891 1.4290323e-38
3.9016597 0.42414093 0.16148555 1.3183975e-38
4.2008247 0.42262939 0.1769122 1.2907388e-38
4.1659594 0.4204818 0.1989934 1.2722997e-38
4.2012892 0.41840416 0.22033085 1.2722997e-38
4.1837716 0.41629174 0.24204442 1.4382518e-38
4.1837187 0.41418794 0.26366335 1.539667e-38
4.1659746 0.41210234 0.28510156 1.2907388e-38
4.1656952 0.41000763 0.30662718 1.3091779e-38
4.1828766 0.40787712 0.32851443 1.2538606e-38
4.1823688 0.40577388 0.35012755 1.5304475e-38
4.1817465 0.40367094 0.37173772 1.604204e-38
4.1985779 0.40150565 0.39398241 1.2999584e-38
4.2152882 0.39932296 0.41640604 1.2262019e-38
4.1967583 0.39728394 0.43736571 1.244641e-38
4.1956778 0.39517385 0.4590497 1.3552758e-38
4.2120314 0.392966 0.4817318 1.3091779e-38
4.2282605 0.39074102 0.50459027 1.0602497e-38
4.1566753 0.38907948 0.52168971 1.1432258e-38
4.5233049 0.38436481 0.57000834 1.1155671e-38
4.2060871 0.38449931 0.56873828 1.3737149e-38
4.2043152 0.38238469 0.59046906 1.1524454e-38
4.2549548 0.37981603 0.61684704 1.0694693e-38
4.2354288 0.37783721 0.63718832 8.8507805e-39
4.2158046 0.3758772 0.65733647 1.2815193e-38
4.2485304 0.37340122 0.68276817 1.1616649e-38
4.2286854 0.37145239 0.70280176 1.1524454e-38
4.2262077 0.3693265 0.72464848 1.1985432e-38
4.2585177 0.3667922 0.75067967 1.0049324e-38
4.2383475 0.36486495 0.77049142 9.1273674e-39
4.2499804 0.36037368 0.81664002 8.6663892e-39
4.1846371 0.54863971 -0.9786104 1.1063476e-38
4.1910706 0.54639876 -0.95701808 9.5883455e-39
4.214282 0.54458719 -0.94023567 1.0879084e-38
4.2035952 0.54190791 -0.91373408 9.6805411e-39
4.2096868 0.53965819 -0.89204371 8.4819979e-39
4.1986976 0.53700078 -0.86574316 1.0694693e-38
4.2045364 0.53475469 -0.8440789 1.0141519e-38
4.2272749 0.53289258 -0.82678616 1.0510302e-38
4.1988349 0.52987719 -0.79634738 8.7585848e-39
4.1978111 0.52278608 -0.72722429 8.2976067e-39
4.1966996 0.50647211 -0.56824446 8.7585848e-39
4.1837149 0.50395775 -0.54326367 8.4819979e-39
4.2051315 0.501993 -0.5249216 8.6663892e-39
4.2091765 0.49975079 -0.50322777 1.0694693e-38
4.2131076 0.49750686 -0.48151314 1.2077628e-38
4.2169237 0.49526128 -0.45977825 1.0879084e-38
4.2032862 0.49278498 -0.43514383 9.219563e-39
4.2068591 0.49054566 -0.41346067 1.0325911e-38
4.2276855 0.48851538 -0.39445823 1.1801041e-38
4.2484255 0.48646504 -0.37525707 8.8507805e-39
4.2168903 0.48381925 -0.34830335 1.1708845e-38
4.2025967 0.48139206 -0.32412288 1.097128e-38
4.240427 0.47950166 -0.307118 9.4039542e-39
4.2258921 0.47708151 -0.28299695 1.0233715e-38
4.1763287 0.47437024 -0.2547324 1.1247867e-38
4.1789517 0.47214919 -0.23319174 1.097128e-38
4.2163944 0.47019842 -0.21558422 9.6805411e-39
4.201335 0.46783054 -0.19195305 1.1985432e-38
4.1686544 0.46536374 -0.16670041 9.3117586e-39
4.2058053 0.46336362 -0.148601 1.1893236e-38
4.2078695 0.46112907 -0.12690802 9.6805411e-39
4.2098193 0.45889387 -0.10520455 9.8649324e-39
4.1590953 0.45642021 -0.079211503 1.0602497e-38
4.1432676 0.45414224 -0.05642736 1.3183975e-38
4.1448479 0.4519431 -0.035061199 1.3276171e-38
4.1813955 0.44984573 -0.015992342 1.1893236e-38
4.2003083 0.44766876 0.0045106737 1.244641e-38
4.1664639 0.44537586 0.028112955 1.1708845e-38
4.1500421 0.44314322 0.050477374 1.2169823e-38
4.1686196 0.44095621 0.071090594 1.3460562e-38
4.2046571 0.43875441 0.091196299 9.957128e-39
3.9068077 0.43661603 0.12314866 1.1247867e-38
3.9074461 0.43454713 0.14328109 1.3460562e-38
3.9079785 0.43247831 0.16341659 1.2815193e-38
3.9084051 0.43040964 0.18355466 1.1247867e-38
4.2075253 0.42761129 0.19965056 1.0510302e-38
4.2077565 0.42538327 0.22134842 1.1247867e-38
4.1902957 0.42321733 0.24310201 1.3276171e-38
4.1902986 0.42099944 0.26470962 1.5120083e-38
4.1726098 0.41886252 0.28618866 1.2815193e-38
4.1723862 0.416655 0.30770364 1.097128e-38
4.1896238 0.41434878 0.32952866 1.0141519e-38
4.5230622 0.41006777 0.35878822 1.4843496e-38
4.1886058 0.4099181 0.37273231 1.4474714e-38
4.1879263 0.40770388 0.39432961 1.0418106e-38
4.5208592 0.40289038 0.42879578 1.1801041e-38
4.2213478 0.40298554 0.4390502 1.0325911e-38
4.2027621 0.40091082 0.45995682 1.2722997e-38
4.2191744 0.39852595 0.48257872 9.8649324e-39
4.5337496 0.39315993 0.52311319 9.5883455e-39
4.2165437 0.39407068 0.5260824 9.1273674e-39
4.2150564 0.39184481 0.54782343 8.3898023e-39
4.2134547 0.38962018 0.56955647 1.1432258e-38
4.1942186 0.38760862 0.5898723 1.0325911e-38
4.2449341 0.38473287 0.61599582 1.097128e-38
4.2604775 0.38226333 0.63947481 9.1273674e-39
4.2059054 0.38073555 0.65639669 8.5741936e-39
4.2561927 0.37777105 0.68340075 1.1155671e-38
4.2363992 0.37578568 0.70348209 1.1063476e-38
4.2514453 0.37328535 0.7272799 1.0049324e-38
4.2488985 0.37104511 0.74920034 1.0141519e-38
4.1964664 0.57006598 -0.97787023 1.3460562e-38
4.2029476 0.56774378 -0.95620435 1.2815193e-38
4.2093153 0.56541854 -0.93450499 1.4474714e-38
4.232481 0.56352484 -0.91754425 9.219563e-39
4.2217069 0.56075907 -0.89100802 1.1155671e-38
4.2277308 0.55842501 -0.86921167 1.1985432e-38
4.2166543 0.55568182 -0.84287739 1.2999584e-38
4.222425 0.5533517 -0.82110792 1.1708845e-38
4.2110481 0.55063152 -0.79497886 1.1616649e-38
4.2165666 0.54830557 -0.77323914 9.8649324e-39
4.2101612 0.54328734 -0.72561163 9.8649324e-39
4.198195 0.54061425 -0.69990313 8.9429761e-39
4.2309189 0.52435225 -0.54767829 1.0141519e-38
4.18332 0.52120286 -0.51606458 9.4039542e-39
4.1873708 0.51889873 -0.49447238 9.7727368e-39
4.208612 0.5168463 -0.4759371 1.2722997e-38
4.2124505 0.51452911 -0.45421365 1.2169823e-38
4.2161746 0.51221025 -0.4324705 1.2262019e-38
4.2371359 0.51011455 -0.4135153 1.2815193e-38
4.2232795 0.50756806 -0.38892731 1.4013736e-38
4.2614193 0.50565553 -0.37238109 9.7727368e-39
4.212532 0.50272447 -0.3427766 1.0879084e-38
4.1982632 0.50022209 -0.31858912 1.1155671e-38
4.2012734 0.49791425 -0.2969214 9.5883455e-39
4.2216005 0.49577203 -0.277502 1.2354214e-38
4.1720667 0.49298099 -0.2491942 1.2538606e-38
4.1921659 0.49083665 -0.22974582 1.2815193e-38
4.1597791 0.48825875 -0.20412834 1.0510302e-38
4.2146115 0.48635903 -0.18836311 1.2999584e-38
4.1644831 0.48369002 -0.16118392 1.1432258e-38
4.2016521 0.48162189 -0.14313029 1.1155671e-38
4.1512318 0.47901922 -0.11656556 1.0325911e-38
4.2057109 0.47701001 -0.099752866 1.1432258e-38
4.1550136 0.47446424 -0.073714554 1.2907388e-38
4.1392093 0.47211602 -0.05092128 1.3460562e-38
4.193409 0.47002771 -0.033350829 1.4382518e-38
4.1598396 0.46762809 -0.0093696928 1.392154e-38
4.1436777 0.4653078 0.013174077 1.2262019e-38
4.1624923 0.46306893 0.033565577 1.2077628e-38
4.1812043 0.46081048 0.054146197 1.2815193e-38
4.1646924 0.45850897 0.076526314 1.3460562e-38
4.2007504 0.45623294 0.096586764 1.0325911e-38
4.219142 0.45392573 0.11764018 9.8649324e-39
4.2022848 0.45163387 0.13994274 1.1708845e-38
4.2204537 0.44930744 0.16118662 1.0786889e-38
4.1682134 0.44710883 0.18400866 1.244641e-38
4.1861539 0.44478279 0.20525765 1.1063476e-38
4.221561 0.4423815 0.22652631 1.1893236e-38
4.1865449 0.44020522 0.24845618 1.3644953e-38
4.1865702 0.43791705 0.27005643 1.5120083e-38
4.1689034 0.4357146 0.29154706 1.3644953e-38
4.1862783 0.43334222 0.31325606 1.4382518e-38
4.1683869 0.43116033 0.33456162 1.1616649e-38
4.5194297 0.42659777 0.36374822 1.4290323e-38
4.184988 0.42648473 0.37804422 1.4843496e-38
4.2018995 0.42406675 0.40020198 1.1616649e-38
4.2186904 0.42163029 0.42253903 1.0233715e-38
4.2002368 0.41948146 0.44355467 1.2354214e-38
4.1816769 0.41735297 0.46438259 1.3183975e-38
4.2332225 0.41455543 0.48875359 1.1616649e-38
4.196887 0.41261113 0.5085457 1.0510302e-38
4.2130837 0.41013163 0.53131241 1.1893236e-38
4.2116189 0.40783539 0.55304766 8.6663892e-39
4.1925106 0.40575144 0.57347685 1.097128e-38
4.2258677 0.40302634 0.59788334 1.1340062e-38
4.2415662 0.40049437 0.62116504 1.1616649e-38
4.257134 0.39794466 0.64461941 1.0510302e-38
4.2550721 0.39562678 0.6665827 9.8649324e-39
4.2528944 0.39331055 0.68853503 1.0049324e-38
4.2506008 0.39099601 0.71047574 9.0351717e-39
4.2481923 0.38868326 0.73240435 1.1063476e-38
4.2456679 0.38637236 0.75432003 1.1063476e-38
4.240274 0.38175628 0.79811078 8.4819979e-39
4.2524543 0.36491972 0.95657241 8.5741936e-39
4.1964664 0.57006598 -0.97787023 9.8649324e-39
4.2029476 0.56774378 -0.95620435 1.1708845e-38
4.2093153 0.56541854 -0.93450499 1.3368366e-38
4.2217069 0.56075907 -0.89100802 1.1432258e-38
4.2107692 0.55800927 -0.86461645 1.1340062e-38
4.2166543 0.55568182 -0.84287739 1.2630801e-38
4.2110481 0.55063152 -0.79497886 8.4819979e-39
4.2153144 0.54096347 -0.70387727 8.2054111e-39
4.2252769 0.53630877 -0.6603294 8.9429761e-39
4.2093515 0.5263896 -0.56605899 8.7585848e-39
4.2309189 0.52435225 -0.54767829 9.8649324e-39
4.200592 0.52147561 -0.51932234 8.5741936e-39
4.2259169 0.5170998 -0.47901484 8.7585848e-39
4.2124505 0.51452911 -0.45421365 1.0879084e-38
4.2161746 0.51221025 -0.4324705 1.0694693e-38
4.2197847 0.5098899 -0.41070819 1.1340062e-38
4.2232795 0.50756806 -0.38892731 1.1801041e-38
4.2266598 0.50524479 -0.36712852 1.0049324e-38
4.2473183 0.50311589 -0.34784812 1.0786889e-38
4.1982632 0.50022209 -0.31858912 1.0049324e-38
4.2012734 0.49791425 -0.2969214 1.0325911e-38
4.2216005 0.49577203 -0.277502 1.1432258e-38
4.2069516 0.49329519 -0.25354019 1.0879084e-38
4.1921659 0.49083665 -0.22974582 1.0879084e-38
4.1772437 0.4883965 -0.20611957 9.0351717e-39
4.2146115 0.48635903 -0.18836311 1.0418106e-38
4.1644831 0.48369002 -0.16118392 1.0233715e-38
4.236639 0.4818393 -0.14656669 1.0049324e-38
4.2037387 0.47931626 -0.12144688 1.1340062e-38
4.2232213 0.47709933 -0.10128882 1.0694693e-38
4.2075686 0.47470316 -0.078048833 1.1893236e-38
4.1567349 0.47218597 -0.052274793 1.1432258e-38
4.193409 0.47002771 -0.033350829 1.4198127e-38
4.1598396 0.46762809 -0.0093696928 1.1155671e-38
4.2138572 0.46547121 0.0088556083 1.1708845e-38
4.1975927 0.46313122 0.031589076 1.2999584e-38
4.1812043 0.46081048 0.054146197 1.1063476e-38
4.1646924 0.45850897 0.076526314 1.1247867e-38
4.2183142 0.45623496 0.095872767 1.0049324e-38
4.1840076 0.45394105 0.11888526 1.0879084e-38
3.9211633 0.45191172 0.14843972 1.3091779e-38
3.9217191 0.44976756 0.16865933 1.5212279e-38
3.9221683 0.44762358 0.18888159 1.0233715e-38
4.2213063 0.44468987 0.20474455 1.1247867e-38
4.221561 0.4423815 0.22652631 1.1340062e-38
4.2041225 0.44013935 0.24838267 1.2815193e-38
4.168992 0.4379926 0.27003843 1.2077628e-38
4.1689034 0.4357146 0.29154706 1.2077628e-38
4.1862783 0.43334222 0.31325606 1.0049324e-38
4.2035375 0.43095106 0.33514678 1.0694693e-38
4.1855321 0.42876986 0.35645044 1.0602497e-38
4.184988 0.42648473 0.37804422 1.0879084e-38
4.2018995 0.42406675 0.40020198 1.0786889e-38
4.2362556 0.42148691 0.42319757 1.1340062e-38
4.2002368 0.41948146 0.44355467 1.2815193e-38
4.515264 0.41426173 0.48036981 1.2630801e-38
4.2332225 0.41455543 0.48875359 1.0602497e-38
4.2319813 0.41224709 0.51059413 1.2169823e-38
4.2306252 0.40993994 0.53242803 1.2169823e-38
4.5272574 0.40421164 0.574772 8.9429761e-39
4.2275686 0.40532953 0.57607323 1.1247867e-38
4.1908245 0.40346754 0.59510446 8.5741936e-39
4.2415662 0.40049437 0.62116504 8.9429761e-39
4.257134 0.39794466 0.64461941 9.219563e-39
4.2550721 0.39562678 0.6665827 1.0418106e-38
4.2528944 0.39331055 0.68853503 9.4961499e-39
4.2307229 0.38896155 0.73046821 9.7727368e-39
4.2631269 0.38608447 0.75634712 9.219563e-39
4.1998491 0.59041989 -0.95307666 1.1063476e-38
4.2063088 0.58786821 -0.93143016 1.0602497e-38
4.2295461 0.58567786 -0.91460329 1.1985432e-38
4.2188869 0.58275735 -0.88803744 1.0510302e-38
4.2419443 0.58054137 -0.87096941 8.5741936e-39
4.2140408 0.57730412 -0.8399266 1.1616649e-38
4.2199039 0.57475084 -0.81820709 1.0418106e-38
4.2426658 0.57250738 -0.80086941 8.9429761e-39
4.2197485 0.56678706 -0.74863368 9.1273674e-39
4.2474999 0.56195331 -0.70916605 8.9429761e-39
4.2283483 0.55377424 -0.63582814 9.4039542e-39
4.2159538 0.55099624 -0.61033481 8.8507805e-39
4.2378092 0.54867387 -0.59221822 8.5741936e-39
4.2251463 0.54591382 -0.56685495 8.9429761e-39
4.23388 0.54082584 -0.52328122 1.0049324e-38
4.203527 0.53792739 -0.49495524 1.0602497e-38
4.2248635 0.5355671 -0.47645563 8.3898023e-39
4.2461181 0.53318477 -0.45775512 9.1273674e-39
4.2153215 0.53034592 -0.4299058 8.9429761e-39
4.2190242 0.52781677 -0.40818244 1.1524454e-38
4.2226129 0.52528673 -0.38643995 1.3091779e-38
4.2434535 0.52286917 -0.36739111 1.2999584e-38
4.2642078 0.52042985 -0.34814358 9.0351717e-39
4.2500834 0.51778424 -0.32363513 1.2169823e-38
4.2010026 0.5149954 -0.29440925 1.0325911e-38
4.2214117 0.51255429 -0.27511153 1.1247867e-38
4.224299 0.51003087 -0.25335759 9.8649324e-39
4.2096272 0.50745678 -0.22941984 1.2077628e-38
4.2297287 0.50498289 -0.20980564 1.1524454e-38
4.2148056 0.50242931 -0.18602151 1.0418106e-38
4.1647964 0.49985909 -0.15861323 1.0325911e-38
4.2195263 0.497401 -0.14257112 9.7727368e-39
4.1867261 0.49489143 -0.11739884 1.0510302e-38
4.2062855 0.49238539 -0.097449906 1.2354214e-38
4.1732144 0.48992851 -0.072710983 1.0786889e-38
4.2100735 0.48737827 -0.054091815 1.2630801e-38
4.1942692 0.48491943 -0.03104819 1.1801041e-38
4.1958709 0.48242697 -0.0094371187 1.3644953e-38
4.2148972 0.47986943 0.011014372 1.2354214e-38
4.1811867 0.47751918 0.0348855 1.1985432e-38
4.1824408 0.4750385 0.056428049 1.2077628e-38
4.2011366 0.47246143 0.077083051 1.1616649e-38
4.1846085 0.47007892 0.099531688 1.3552758e-38
4.2206483 0.46736416 0.11966911 1.1708845e-38
4.2038879 0.46499363 0.14203624 1.244641e-38
3.9234631 0.46472973 0.17215176 1.3644953e-38
3.9239991 0.46241081 0.19235261 1.5304475e-38
4.2231865 0.45737338 0.20668001 1.1247867e-38
4.1883836 0.45521903 0.22894832 1.0694693e-38
4.2061911 0.45256492 0.25036418 1.2815193e-38
4.2238865 0.44989103 0.27196395 1.244641e-38
4.1711593 0.44800496 0.29366675 1.2907388e-38
4.2062025 0.44512126 0.3153784 1.2722997e-38
4.1708274 0.44308829 0.33664319 1.0786889e-38
4.5043993 0.43620038 0.36372343 1.1155671e-38
4.2403307 0.43720263 0.38115776 9.8649324e-39
4.2397585 0.43470776 0.40300557 1.1247867e-38
4.2390718 0.43221453 0.42485029 9.7727368e-39
4.2382698 0.42972305 0.44669127 1.2722997e-38
4.2022328 0.42780417 0.46702513 1.0418106e-38
4.2363205 0.42474556 0.49035966 1.1063476e-38
4.5335331 0.417054 0.52806497 1.1247867e-38
4.2339106 0.41977581 0.53400594 1.1985432e-38
4.232533 0.41729403 0.55581933 1.2169823e-38
4.5291076 0.4090791 0.59815919 1.2354214e-38
4.2469606 0.41198918 0.60072261 1.097128e-38
4.2277122 0.40986177 0.6212132 1.0141519e-38
4.2608986 0.40665206 0.64595646 8.9429761e-39
4.2568479 0.40167242 0.68985206 1.0141519e-38
4.2721343 0.39878702 0.71353817 9.0351717e-39
4.2698107 0.39629334 0.73554915 8.5741936e-39
4.2324376 0.39464241 0.75367516 9.219563e-39
4.2648144 0.39131424 0.7795338 1.0325911e-38
4.2708416 0.38091952 0.86972684 9.219563e-39
4.2014947 0.58957416 -0.9431079 1.1985432e-38
4.2247858 0.58726633 -0.92637193 1.1524454e-38
4.248014 0.58493495 -0.90942693 1.0786889e-38
4.2204022 0.58166862 -0.8780598 9.4039542e-39
4.2095261 0.57873613 -0.85166234 8.2976067e-39
4.2324343 0.57638788 -0.83453298 9.219563e-39
4.2212811 0.57347286 -0.80824953 9.0351717e-39
4.2269864 0.57083845 -0.78649765 9.4961499e-39
4.2434134 0.56292492 -0.72106683 8.7585848e-39
4.224504 0.55460423 -0.64768213 8.5741936e-39
4.229363 0.55198056 -0.62591416 9.4039542e-39
4.216918 0.54918045 -0.60044771 9.8649324e-39
4.2387366 0.54672945 -0.5823034 9.6805411e-39
4.2260237 0.54394865 -0.55696726 8.3898023e-39
4.2476492 0.54147398 -0.53859669 8.9429761e-39
4.2519331 0.53884476 -0.51670885 8.3898023e-39
4.2388215 0.53609341 -0.49157354 1.0049324e-38
4.2255616 0.53336281 -0.46659636 9.3117586e-39
4.2121539 0.530653 -0.44177827 8.8507805e-39
4.2159276 0.5280531 -0.42007551 1.2630801e-38
4.2369304 0.52553064 -0.40121856 1.2630801e-38
4.2231326 0.52285147 -0.37661201 1.1340062e-38
4.2439342 0.52030653 -0.3575373 1.1985432e-38
4.2646489 0.51773959 -0.33826414 1.2722997e-38
4.233078 0.51504594 -0.31128076 1.1893236e-38
4.2361641 0.51244354 -0.28946981 1.1247867e-38
4.2391343 0.50984102 -0.26764286 1.2354214e-38
4.2245541 0.50723583 -0.24356832 1.1524454e-38
4.227283 0.50464392 -0.22180197 1.1524454e-38
4.4917679 0.50176626 -0.23078479 9.4961499e-39
4.1799908 0.49955001 -0.17234743 9.4039542e-39
4.1823449 0.49699092 -0.15081321 1.2169823e-38
4.2195616 0.49432918 -0.13282344 1.0510302e-38
4.2042103 0.49181134 -0.10939628 1.1340062e-38
4.2062321 0.48924246 -0.087736376 1.0786889e-38
4.1731133 0.48684171 -0.063055515 1.1524454e-38
4.2274547 0.48401156 -0.045800138 1.3276171e-38
4.2116132 0.48153892 -0.022696598 1.4290323e-38
4.1781087 0.47920477 0.0014651624 1.1340062e-38
4.1970873 0.47653356 0.021848105 1.2169823e-38
4.1808715 0.4741171 0.044519782 1.3091779e-38
4.1996341 0.47142607 0.065099396 1.2262019e-38
4.1831808 0.469033 0.087601572 1.3276171e-38
4.184165 0.46649247 0.10915116 1.0879084e-38
4.2201629 0.4635914 0.12933728 1.1616649e-38
4.2033591 0.46122321 0.15167193 9.5883455e-39
3.9228883 0.46191263 0.18135074 1.3737149e-38
3.9233842 0.45953807 0.20154613 1.5857648e-38
3.9237733 0.45716482 0.22174402 1.2538606e-38
4.1876826 0.45127481 0.23853347 1.0510302e-38
4.2054472 0.44849819 0.25996983 1.3183975e-38
4.2406745 0.44544572 0.28154534 1.2169823e-38
4.1879067 0.44368553 0.30325243 1.2722997e-38
4.2229047 0.44060433 0.32510221 1.3183975e-38
4.2050619 0.43834642 0.34662759 1.2354214e-38
4.2222528 0.43551421 0.36861089 1.2077628e-38
4.5204544 0.42771101 0.39737475 1.0879084e-38
4.5197973 0.4249894 0.42067704 1.1801041e-38
4.2204146 0.42789382 0.43385676 1.3737149e-38
4.237134 0.42501643 0.456285 1.0233715e-38
4.2186165 0.4228242 0.47733557 1.0141519e-38
4.1999927 0.42065558 0.49819842 1.0325911e-38
4.1988115 0.41813719 0.51983356 1.0879084e-38
4.1975174 0.41562122 0.54146242 1.1155671e-38
4.5293016 0.4056105 0.58480173 1.0141519e-38
4.5276566 0.40289831 0.60814923 1.2907388e-38
4.5434122 0.39977318 0.63281339 1.3183975e-38
4.2262306 0.40473032 0.63073677 9.8649324e-39
4.2593665 0.40133262 0.65552294 9.7727368e-39
4.2398558 0.3992379 0.67586744 9.4039542e-39
4.2377377 0.39670923 0.69770908 8.3898023e-39
4.252986 0.39371508 0.72132021 1.0049324e-38
4.250628 0.39118201 0.74322993 9.3117586e-39
4.2656159 0.38816258 0.76708966 8.6663892e-39
4.2630167 0.38562542 0.78906488 8.3898023e-39
4.2623668 0.36991194 0.92320561 9.219563e-39
4.2179322 0.59530365 -0.93453598 1.3368366e-38
4.2412333 0.59287453 -0.91770583 1.3183975e-38
4.2475672 0.59012085 -0.89585364 1.1063476e-38
4.2368565 0.58707589 -0.86924314 1.2815193e-38
4.2429347 0.58432925 -0.84741384 1.1247867e-38
4.2149434 0.58104652 -0.81645453 1.0510302e-38
4.2377443 0.57857442 -0.79920024 1.0510302e-38
4.2264299 0.57558852 -0.77299398 1.1524454e-38
4.2320008 0.57285696 -0.75121915 9.6805411e-39
4.2374563 0.57012385 -0.72941548 9.4039542e-39
4.2309113 0.56445277 -0.68170595 8.2054111e-39
4.2360005 0.56172651 -0.65990812 1.097128e-38
4.2238221 0.55882078 -0.6342442 9.6805411e-39
4.2286615 0.55610317 -0.61248338 1.1524454e-38
4.233386 0.55338448 -0.59069741 9.6805411e-39
4.2379951 0.55066472 -0.56888705 1.0786889e-38
4.2252603 0.54781038 -0.5435704 8.9429761e-39
4.2296214 0.54509991 -0.52180237 9.4039542e-39
4.2511325 0.54249996 -0.50331485 9.219563e-39
4.237999 0.53967661 -0.47819915 9.5883455e-39
4.2247167 0.53687495 -0.45324159 8.4819979e-39
4.2286015 0.53417283 -0.43147668 1.3552758e-38
4.2323713 0.53147024 -0.40969166 1.5488866e-38
4.2360263 0.52876711 -0.38788712 1.604204e-38
4.5520372 0.52686101 -0.41580275 1.1340062e-38
4.2429905 0.52335995 -0.3442218 1.244641e-38
4.2636876 0.52067798 -0.32494494 1.244641e-38
4.4931016 0.51810277 -0.33537778 1.3368366e-38
4.2351594 0.51524812 -0.27619049 1.5581061e-38
4.2381096 0.51255512 -0.25437185 1.4105931e-38
4.2235084 0.50988495 -0.23031729 1.6503018e-38
4.2087688 0.50723732 -0.20642932 1.3368366e-38
4.4907026 0.50384563 -0.21737741 1.1708845e-38
4.1788821 0.50200969 -0.15915643 1.1247867e-38
4.1812172 0.4993625 -0.13763075 1.4751301e-38
4.2009273 0.49663717 -0.11785986 1.1524454e-38
4.2205424 0.49388999 -0.097895622 1.4013736e-38
4.1700344 0.49152476 -0.071398661 1.3276171e-38
4.2244492 0.48855466 -0.054401085 1.2169823e-38
4.1911874 0.48613456 -0.029833067 1.3183975e-38
4.2103686 0.48335668 -0.0095556257 1.539667e-38
4.2119141 0.48070291 0.012133274 1.0879084e-38
4.2133446 0.47805011 0.033830155 1.4474714e-38
4.1795678 0.475734 0.057610989 1.3091779e-38
4.2158632 0.47274762 0.077245377 1.2815193e-38
4.1993942 0.47028822 0.099818408 1.4751301e-38
4.1828027 0.46785229 0.12221447 1.4382518e-38
4.2187815 0.46480286 0.14241311 1.2354214e-38
4.2370925 0.46193382 0.16356331 1.1524454e-38
3.9390392 0.46326649 0.19373132 1.4105931e-38
3.9395189 0.46080154 0.21400903 1.5120083e-38
3.922318 0.45859489 0.2345971 1.1432258e-38
4.2037787 0.45185813 0.25132248 1.3276171e-38
4.1863732 0.4495106 0.27310151 1.2354214e-38
4.22158 0.44631696 0.29459706 1.5857648e-38
4.1863699 0.44428527 0.31622821 1.5027888e-38
4.2389216 0.44073904 0.33823803 1.2722997e-38
4.2034855 0.43874454 0.35959372 1.5488866e-38
4.2206559 0.43579361 0.38157731 1.244641e-38
4.2377076 0.43282276 0.40374142 1.4198127e-38
4.2195063 0.43054473 0.42505682 1.4105931e-38
4.2187591 0.42792374 0.44679186 1.5304475e-38
4.2530184 0.42454854 0.46991679 1.1247867e-38
4.1642532 0.42385694 0.48788479 1.0233715e-38
4.2158313 0.42007545 0.51197082 1.4198127e-38
4.2321725 0.41705322 0.53465724 1.2907388e-38
4.1957655 0.4152784 0.55433387 1.2907388e-38
4.5450354 0.40402055 0.59900779 1.4382518e-38
4.2453804 0.40875977 0.60128158 1.4013736e-38
4.2437034 0.40613812 0.62315059 1.3552758e-38
4.2068839 0.40445131 0.64215779 1.1616649e-38
4.5551124 0.39232087 0.69417733 1.2354214e-38
4.5704355 0.38902476 0.71926475 1.0418106e-38
4.2183557 0.39618075 0.70883316 8.8507805e-39
4.2510705 0.39256674 0.73414212 1.3091779e-38
4.248693 0.38995329 0.75604022 1.0879084e-38
4.263659 0.38681215 0.77989805 8.6663892e-39
4.2784882 0.38365287 0.80392432 8.8507805e-39
4.2408676 0.38213381 0.82165772 8.3898023e-39
4.2699008 0.37579039 0.87000209 8.3898023e-39
4.2602696 0.36796236 0.93593979 8.2976067e-39
4.233305 0.59718359 -0.93302083 1.3737149e-38
4.2228384 0.59407443 -0.90632087 1.0786889e-38
4.2460241 0.59145176 -0.88936055 8.2976067e-39
4.2352767 0.58836234 -0.86277002 1.1247867e-38
4.2413235 0.585504 -0.84094626 1.0418106e-38
4.2302728 0.58244622 -0.81455624 1.1432258e-38
4.2360649 0.57959664 -0.79275841 1.2077628e-38
4.2247143 0.57657093 -0.76657242 1.2077628e-38
4.2356777 0.57088888 -0.72300577 1.2354214e-38
4.2238932 0.56790596 -0.69708753 8.2976067e-39
4.2341237 0.56224114 -0.65353131 8.8507805e-39
4.22191 0.55930191 -0.62788796 9.219563e-39
4.2438941 0.55657315 -0.6098699 8.9429761e-39
4.2314105 0.55365574 -0.58435416 1.2630801e-38
4.2359886 0.55083179 -0.56255037 1.1708845e-38
4.2404518 0.54800737 -0.54072285 1.0510302e-38
4.2102985 0.5450871 -0.51211458 1.0510302e-38
4.2144961 0.54228508 -0.49042046 9.8649324e-39
4.2185793 0.53948289 -0.46870458 1.1524454e-38
4.2225471 0.53668046 -0.44696745 1.0233715e-38
4.2264009 0.53387797 -0.42520967 1.6134235e-38
4.2301393 0.53107548 -0.40343189 1.3091779e-38
4.2511101 0.52825129 -0.38447419 1.392154e-38
4.4976974 0.52497053 -0.40105972 1.1340062e-38
4.2232885 0.52271366 -0.33532503 1.2630801e-38
4.2439423 0.519867 -0.31613225 1.2354214e-38
4.2297025 0.51713365 -0.29178473 1.1616649e-38
4.215322 0.51442397 -0.26760164 1.2815193e-38
4.2182293 0.51164675 -0.24588135 1.0786889e-38
4.238461 0.50876725 -0.22635299 1.3644953e-38
4.2062502 0.50620842 -0.20027962 1.456691e-38
4.2088027 0.50344479 -0.17860645 1.1155671e-38
4.2287116 0.50054443 -0.15885498 1.1708845e-38
4.2310452 0.49777094 -0.13706507 1.1340062e-38
4.1807942 0.49548021 -0.11000299 1.3276171e-38
4.2178683 0.4923991 -0.091786988 1.1893236e-38
4.1673274 0.4901914 -0.065338843 1.1893236e-38
4.2217131 0.48688275 -0.048309501 1.3368366e-38
4.1533756 0.48495346 -0.020997858 1.1985432e-38
4.2075706 0.48158976 -0.0034947777 1.3460562e-38
4.1740141 0.47930738 0.020600066 1.2999584e-38
4.1929431 0.47634861 0.040989559 1.3829344e-38
4.1942234 0.47362119 0.062593661 1.3460562e-38
4.1602869 0.47142407 0.086072244 1.2538606e-38
4.2139974 0.46789554 0.10497858 1.2722997e-38
4.1973791 0.46544909 0.1274436 1.4474714e-38
4.1982031 0.46272871 0.14907078 1.2077628e-38
3.9354205 0.46466416 0.17923622 1.1616649e-38
3.9359784 0.46211964 0.1995021 1.3829344e-38
3.9364293 0.45957708 0.21977086 1.5212279e-38
4.182785 0.45221189 0.23591156 1.097128e-38
4.2006102 0.44915733 0.25725925 1.0602497e-38
4.1831756 0.44681719 0.27901569 1.1063476e-38
4.2359223 0.44298667 0.30050594 1.2077628e-38
4.1831112 0.44143197 0.32212269 1.1985432e-38
4.2356262 0.43753806 0.34416062 1.2630801e-38
4.2001634 0.43564379 0.36548078 1.3091779e-38
4.2173009 0.43252441 0.38746679 1.3829344e-38
4.1640501 0.43112826 0.40789101 1.1247867e-38
4.1985245 0.4275673 0.43039876 1.3737149e-38
4.232873 0.42396387 0.45326829 1.2077628e-38
4.2319765 0.42125776 0.47508004 1.2077628e-38
4.1958594 0.41951695 0.4952859 1.1247867e-38
4.2473884 0.41536239 0.5195809 1.0879084e-38
4.2461419 0.41265446 0.54146814 1.0879084e-38
4.2447805 0.40994981 0.56334889 1.3829344e-38
4.2433033 0.40724859 0.5852226 1.5488866e-38
4.2417107 0.40455079 0.60708863 1.1985432e-38
4.2400026 0.40185654 0.62894636 1.2630801e-38
4.2031598 0.40028569 0.64791811 1.0325911e-38
4.2537441 0.39590785 0.6741643 1.0325911e-38
4.5665665 0.38273251 0.725254 1.1340062e-38
4.2495046 0.39052296 0.71799421 1.1801041e-38
4.2472115 0.38783634 0.73989248 1.0786889e-38
4.2422791 0.3824752 0.78365284 9.1273674e-39
4.2368855 0.3771306 0.82736069 8.7585848e-39
4.2337675 0.59546161 -0.91687256 1.3183975e-38
4.2232552 0.59229648 -0.89019728 1.2077628e-38
4.2294927 0.58933711 -0.86844087 9.3117586e-39
4.2356153 0.58637649 -0.84665197 1.0786889e-38
4.2416229 0.58341467 -0.82483125 1.3644953e-38
4.2305269 0.58030444 -0.79846644 1.0418106e-38
4.2192688 0.5772171 -0.77224743 1.1155671e-38
4.241919 0.57439965 -0.75484753 1.1247867e-38
4.2303853 0.57133448 -0.72874606 9.3117586e-39
4.2357707 0.56839204 -0.7069521 1.1801041e-38
4.2410407 0.56544888 -0.68513012 8.7585848e-39
4.229075 0.56242955 -0.65929908 1.0602497e-38
4.2169523 0.55943358 -0.63361901 9.957128e-39
4.2437868 0.55363148 -0.59385908 9.957128e-39
4.2312598 0.55067044 -0.56836975 1.0049324e-38
4.2357988 0.54774892 -0.54657078 1.0786889e-38
4.2229857 0.54482353 -0.52130163 1.0141519e-38
4.2100224 0.54192203 -0.49618849 9.1273674e-39
4.2487249 0.53898406 -0.4810341 8.8507805e-39
4.2182255 0.53612685 -0.45278889 8.6663892e-39
4.2221551 0.53322953 -0.43105716 1.2815193e-38
4.2259698 0.53033251 -0.40930498 1.2999584e-38
4.247005 0.52736783 -0.39044079 1.0233715e-38
4.2332549 0.52453965 -0.36574149 1.2722997e-38
4.2540894 0.52155203 -0.34665921 1.3091779e-38
4.5007606 0.51718992 -0.3616668 1.1708845e-38
4.2433181 0.5158546 -0.30025756 1.2722997e-38
4.2638469 0.51283318 -0.28085193 1.2722997e-38
4.2320328 0.51020807 -0.25414956 1.3829344e-38
4.2349133 0.50732821 -0.23234545 1.3737149e-38
4.2202382 0.50461304 -0.20834081 1.3368366e-38
4.4846573 0.49911255 -0.21802197 1.0510302e-38
4.2254024 0.4988825 -0.16484106 9.6805411e-39
4.1928668 0.49641809 -0.13924392 1.0786889e-38
4.2126245 0.49336836 -0.1194657 1.1985432e-38
4.2322865 0.49029619 -0.099493988 1.1247867e-38
4.2168517 0.48767215 -0.076046906 1.1893236e-38
4.2187929 0.48482633 -0.054321073 1.4198127e-38
4.2381349 0.48172307 -0.034044378 1.1616649e-38
4.2048087 0.47941059 -0.0094712041 1.2907388e-38
4.206399 0.47658175 0.01219228 1.3737149e-38
4.1728039 0.47434422 0.036236588 1.3276171e-38
4.1916952 0.47123629 0.056638829 1.1708845e-38
4.1929374 0.46842507 0.078234419 1.2354214e-38
4.1940651 0.46561593 0.099836543 1.2722997e-38
4.1775231 0.4631511 0.12226629 1.5027888e-38
4.1784196 0.46035814 0.14378849 1.2999584e-38
4.1967645 0.45720169 0.16467611 1.0786889e-38
3.9515188 0.45968848 0.19397125 1.456691e-38
3.9520433 0.45705611 0.21431962 1.5120083e-38
3.9524603 0.45442611 0.23467079 1.2538606e-38
4.2163372 0.44560331 0.25090998 1.2077628e-38
4.1989808 0.44322649 0.27281722 1.3276171e-38
4.1990819 0.44043943 0.29445139 1.0418106e-38
4.1990681 0.43765521 0.31608617 1.244641e-38
4.1989408 0.43487391 0.33772093 1.1247867e-38
4.2338405 0.43115208 0.35971937 1.1524454e-38
4.2159123 0.42883685 0.3812615 1.5765453e-38
4.2154408 0.42605302 0.40298396 1.3460562e-38
4.2148538 0.42327246 0.42470407 1.3737149e-38
4.1965904 0.42101368 0.44587401 1.2630801e-38
4.1957779 0.41825145 0.46749634 1.1616649e-38
4.2475157 0.41386721 0.49130344 1.0141519e-38
4.2113614 0.41218394 0.51154876 1.3737149e-38
4.2102017 0.40942064 0.53324807 1.2907388e-38
4.2089276 0.40666106 0.55494136 1.2077628e-38
4.2426081 0.40272877 0.57881671 1.3737149e-38
4.2235646 0.40055344 0.59949321 1.3368366e-38
4.2394614 0.39718246 0.62253255 1.2077628e-38
4.2377152 0.39441532 0.64437819 1.1432258e-38
4.2183485 0.39228663 0.66475642 1.0049324e-38
4.2688737 0.38760161 0.69114059 1.0233715e-38
4.2317863 0.38613874 0.70985866 8.8507805e-39
4.2470593 0.38271961 0.73339587 9.8649324e-39
4.262198 0.37928203 0.75710332 9.7727368e-39
4.2597418 0.37651774 0.77906746 8.4819979e-39
4.2544804 0.371003 0.82295722 1.0510302e-38
4.2516761 0.36825272 0.84488147 8.5741936e-39
4.2307768 0.59968996 -0.90821481 1.0786889e-38
4.2202101 0.59648156 -0.88156611 1.0694693e-38
4.2264009 0.59338003 -0.85981601 1.0694693e-38
4.2324758 0.59027797 -0.83803356 1.0325911e-38
4.2384362 0.58717543 -0.81621939 1.1063476e-38
4.2272868 0.58402747 -0.78988159 1.0049324e-38
4.2329926 0.58093673 -0.76809394 9.957128e-39
4.238584 0.57784575 -0.74627644 9.7727368e-39
4.2440596 0.57475466 -0.72442979 8.5741936e-39
4.2255406 0.56554157 -0.65079743 1.0418106e-38
4.2133665 0.56251842 -0.62514508 9.0351717e-39
4.2353697 0.55941033 -0.60721177 1.0418106e-38
4.2401109 0.55634522 -0.58538055 1.2538606e-38
4.2447367 0.55328059 -0.56352448 9.0351717e-39
4.2492476 0.5502165 -0.54164422 1.0325911e-38
4.219161 0.54736322 -0.51288736 1.0049324e-38
4.2406631 0.54420781 -0.49447641 1.0325911e-38
4.2448096 0.54115832 -0.4726167 1.0141519e-38
4.1969652 0.53853756 -0.44126204 9.957128e-39
4.2181392 0.53537226 -0.42269677 1.2907388e-38
4.2392306 0.53218299 -0.40393147 1.2907388e-38
4.2255602 0.52933007 -0.37919021 1.1801041e-38
4.2290983 0.52631068 -0.3574079 1.244641e-38
4.2498884 0.52308762 -0.3383151 1.4659105e-38
4.2184482 0.52049339 -0.31117019 1.1985432e-38
4.2216272 0.51749057 -0.28942424 1.0141519e-38
4.2595043 0.51400447 -0.27253631 1.3368366e-38
4.2102218 0.51174444 -0.24353571 1.2999584e-38
4.2304745 0.50849158 -0.22408843 1.0141519e-38
4.2331939 0.50549537 -0.20227925 1.2630801e-38
4.200892 0.50308526 -0.17630462 1.2077628e-38
4.2033596 0.5001176 -0.15464862 9.4961499e-39
4.1882401 0.49746895 -0.13108532 1.0602497e-38
4.2079515 0.49418843 -0.11129816 1.4105931e-38
4.2100759 0.49122703 -0.089604914 1.1616649e-38
4.1945863 0.48862201 -0.066278487 1.2999584e-38
4.2314882 0.48494452 -0.047716465 1.5212279e-38
4.2157612 0.48235658 -0.024460217 1.2999584e-38
4.1999049 0.47979587 -0.0013763759 1.5027888e-38
4.1839204 0.47726238 0.021534348 1.4935692e-38
4.202879 0.4739244 0.041936684 1.0602497e-38
4.1691146 0.47184911 0.065757431 1.097128e-38
4.1878505 0.46850431 0.0862654 1.1524454e-38
4.2064819 0.46513775 0.10696193 1.3552758e-38
4.1899004 0.46267974 0.12945242 1.4290323e-38
4.1907539 0.45977199 0.15105407 1.2999584e-38
4.1739335 0.45735693 0.17328095 1.0694693e-38
3.946238 0.46099195 0.20168298 1.3644953e-38
3.9467194 0.45826492 0.22201994 1.6687409e-38
3.9470935 0.45554104 0.24235959 1.5488866e-38
4.1757441 0.44581971 0.2593756 1.244641e-38
4.1934814 0.44239324 0.28074026 1.2722997e-38
4.2111053 0.43894598 0.30228844 1.1247867e-38
4.2110462 0.43605307 0.3240017 1.4013736e-38
4.1933036 0.43375111 0.34560579 1.1247867e-38
4.2281499 0.42967933 0.36762765 1.3091779e-38
4.2804403 0.42495164 0.39030465 1.1432258e-38
4.1745362 0.42576677 0.41008219 1.392154e-38
4.5251141 0.4102065 0.44108576 1.3552758e-38
4.1907253 0.41942489 0.45369294 1.4198127e-38
4.2249742 0.41525266 0.47661442 1.0786889e-38
4.2415438 0.4117083 0.4991487 1.1801041e-38
4.5387053 0.39720565 0.53527844 1.1524454e-38
4.1866097 0.40803915 0.5401001 1.0602497e-38
4.2203641 0.40378863 0.56372994 1.3644953e-38
4.5344305 0.38798198 0.60550767 1.1524454e-38
4.2173686 0.3980841 0.60724998 1.1524454e-38
4.2332139 0.39449564 0.63029242 1.1985432e-38
4.2139149 0.39239877 0.65073848 1.0602497e-38
4.2120156 0.38956347 0.67246944 1.0694693e-38
4.2274928 0.38595426 0.69575739 1.0879084e-38
4.2428374 0.38232648 0.71921682 1.1247867e-38
4.2580481 0.37868032 0.74284685 9.219563e-39
4.255661 0.37583029 0.76480782 1.2077628e-38
4.2478056 0.36731288 0.83061498 8.9429761e-39
4.2530923 0.35513943 0.92063177 8.2976067e-39
4.2346539 0.60881352 -0.89757836 1.0879084e-38
4.2409673 0.60560429 -0.87578243 1.2262019e-38
4.2302427 0.6023891 -0.84919775 1.0694693e-38
4.2363009 0.59919256 -0.82742417 1.0602497e-38
4.2422438 0.59599602 -0.80561882 9.219563e-39
4.2480712 0.59279966 -0.7837823 1.0602497e-38
4.2537832 0.58960354 -0.76191527 9.4961499e-39
4.2423396 0.58646637 -0.73570275 1.1432258e-38
4.2307358 0.58335537 -0.70963776 8.8507805e-39
4.2513285 0.57068241 -0.62236071 8.8507805e-39
4.2390223 0.56765193 -0.59669125 9.6805411e-39
4.2437468 0.56449938 -0.5748688 9.5883455e-39
4.2356267 0.55837178 -0.52763408 9.7727368e-39
4.2399869 0.55523527 -0.50582838 1.0418106e-38
4.226974 0.55230027 -0.48066261 1.0786889e-38
4.2350831 0.54605961 -0.43711808 1.0879084e-38
4.2389646 0.54294151 -0.4153139 1.2077628e-38
4.2427316 0.53982496 -0.39348936 1.2077628e-38
4.2290459 0.53697449 -0.36875656 1.2815193e-38
4.2499185 0.53359699 -0.34978127 1.2077628e-38
4.2533388 0.53048575 -0.32789901 9.4961499e-39
4.2392635 0.5276792 -0.3033804 1.1155671e-38
4.2424388 0.52458471 -0.28155282 1.2999584e-38
4.2629042 0.52116394 -0.26214623 1.4659105e-38
4.2484436 0.51840204 -0.23784794 1.0879084e-38
4.2338438 0.51566797 -0.21371473 1.2077628e-38
4.4981499 0.50709528 -0.22441326 1.0233715e-38
4.2216821 0.50990403 -0.16802311 1.1063476e-38
4.2590656 0.50606459 -0.15025605 8.5741936e-39
4.22649 0.50379616 -0.12453388 9.8649324e-39
4.1937613 0.50158131 -0.099161871 1.0694693e-38
4.1958599 0.49855947 -0.07756786 1.2538606e-38
4.2153425 0.49509749 -0.057585355 1.2262019e-38
4.1997156 0.4925243 -0.03434686 1.1616649e-38
4.2014718 0.48951113 -0.01272108 1.2538606e-38
4.220634 0.48602009 0.0075639882 1.2538606e-38
4.2046423 0.48349404 0.030558087 1.2262019e-38
4.1885238 0.48099646 0.053378485 1.2815193e-38
4.2073545 0.47748986 0.073870145 1.2907388e-38
4.1734543 0.47555551 0.097509272 1.2538606e-38
4.2096095 0.47149917 0.11721028 1.2630801e-38
4.1754632 0.46962216 0.1404974 1.2999584e-38
4.1938519 0.46609178 0.16128668 1.2538606e-38
3.9487705 0.47126389 0.19158904 1.0233715e-38
3.9669044 0.46787861 0.21138433 1.2907388e-38
3.9673724 0.46507859 0.23180461 1.5673257e-38
3.9677329 0.46228227 0.25222757 1.1893236e-38
4.2138939 0.45064795 0.26905358 1.3091779e-38
4.2843099 0.44510901 0.29009339 1.2077628e-38
4.214087 0.44472632 0.31246141 1.1340062e-38
4.2842731 0.43909648 0.33423233 9.4039542e-39
4.1962566 0.43950307 0.35576349 1.2354214e-38
4.1959529 0.43656984 0.37737641 1.1340062e-38
4.1779742 0.43434709 0.39869797 1.1432258e-38
4.195004 0.43071696 0.42059782 1.4013736e-38
4.1943583 0.42779747 0.44220507 1.4290323e-38
4.2111521 0.4241398 0.46437287 1.1801041e-38
4.2278237 0.4204624 0.48671931 9.3117586e-39
4.2268276 0.41753289 0.50849783 1.1893236e-38
4.2257161 0.41460839 0.53027153 1.244641e-38
4.2069545 0.41248092 0.55111164 1.1708845e-38
4.2231493 0.40877482 0.57380176 1.1524454e-38
4.221693 0.40586591 0.59555715 1.1616649e-38
4.2201223 0.40296233 0.61730534 1.3460562e-38
4.2184372 0.4000642 0.63904554 1.0325911e-38
4.2166371 0.39717156 0.66077739 1.0786889e-38
4.249712 0.392555 0.68544787 1.1893236e-38
4.2301788 0.39052632 0.70577794 1.0786889e-38
4.2629805 0.38586098 0.7308827 1.0049324e-38
4.2606936 0.38295513 0.75284696 8.6663892e-39
4.2705741 0.37333709 0.82068616 9.4961499e-39
4.2678127 0.37044373 0.842691 8.2976067e-39
4.2329373 0.6224249 -0.89218426 1.0510302e-38
4.2454114 0.61595851 -0.8485558 9.6805411e-39
4.2404494 0.60954273 -0.8002274 8.4819979e-39
4.2519512 0.60310435 -0.75652075 8.2976067e-39
4.2404866 0.59997469 -0.73031658 1.0141519e-38
4.2459264 0.59676981 -0.70847732 8.4819979e-39
4.2615514 0.58715963 -0.6427905 9.5883455e-39
4.2493796 0.58411175 -0.61697799 9.4961499e-39
4.2542205 0.58092415 -0.59509093 8.7585848e-39
4.2336001 0.57177931 -0.52226722 9.3117586e-39
4.2249088 0.56569874 -0.47530404 1.0786889e-38
4.2290025 0.56255794 -0.45354193 9.8649324e-39
4.2329807 0.5594188 -0.43175825 1.1155671e-38
4.2368441 0.55628139 -0.40995356 9.3117586e-39
4.223269 0.55342871 -0.38516009 1.1432258e-38
4.2268867 0.55030787 -0.3634052 1.097128e-38
4.5080338 0.54224867 -0.38624862 1.1063476e-38
4.233777 0.54407215 -0.3198387 1.1985432e-38
4.5151339 0.53560513 -0.33976287 9.5883455e-39
4.2402058 0.53784496 -0.27620056 1.2262019e-38
4.2258415 0.53509504 -0.25192818 1.2722997e-38
4.228756 0.53200006 -0.23015799 8.6663892e-39
4.2489843 0.52852166 -0.21061958 1.0786889e-38
4.2516794 0.52541894 -0.1887286 1.0510302e-38
4.2193556 0.52314192 -0.16269088 9.957128e-39
4.4837227 0.51370502 -0.17058812 1.0418106e-38
4.2241268 0.51700115 -0.11920223 9.219563e-39
4.2263403 0.51393503 -0.097439021 1.2262019e-38
4.1934595 0.51179719 -0.072256744 9.3117586e-39
4.2304211 0.50781178 -0.053877749 1.1801041e-38
4.197279 0.50573111 -0.029036837 1.0141519e-38
4.199017 0.50270277 -0.0074117002 1.2169823e-38
4.2006412 0.49967772 0.014222777 1.0418106e-38
4.2196765 0.49612972 0.034616653 9.3117586e-39
4.1860142 0.49417672 0.058675725 1.1801041e-38
4.2223639 0.49007136 0.078108937 1.1340062e-38
4.1709094 0.48874041 0.10279484 1.2722997e-38
4.2070456 0.48460439 0.12251446 1.5673257e-38
4.1728821 0.48277977 0.14578086 1.1893236e-38
4.208806 0.47860083 0.16587572 1.1616649e-38
3.9637203 0.48421118 0.19613084 1.0786889e-38
3.9642792 0.48139524 0.21654665 1.3829344e-38
3.9647303 0.47858319 0.23696567 1.4751301e-38
3.9650738 0.47577503 0.25738731 1.1893236e-38
4.1936383 0.46432704 0.27459607 1.1985432e-38
4.2289023 0.46000963 0.29589447 1.2999584e-38
4.1937943 0.45840633 0.31781837 1.0141519e-38
4.2288294 0.45404792 0.33948296 1.1524454e-38
4.2637463 0.44964433 0.36151215 1.1432258e-38
4.2107339 0.44883186 0.38286215 1.1893236e-38
4.2102966 0.44587973 0.40456313 1.1063476e-38
4.2448597 0.44142839 0.42704409 1.1155671e-38
4.1915231 0.44075438 0.44747645 1.0694693e-38
4.260952 0.43472242 0.4713718 8.8507805e-39
4.2249489 0.43333119 0.49200594 1.2999584e-38
4.2414784 0.42959034 0.51453781 1.0141519e-38
4.240344 0.42664382 0.53640032 1.0879084e-38
4.2040277 0.42535436 0.55638182 1.1616649e-38
4.220202 0.42160499 0.57907927 1.1340062e-38
4.2187276 0.41868699 0.60083222 1.0786889e-38
4.2346539 0.41491205 0.62378865 1.0418106e-38
4.1979275 0.41374239 0.64301383 9.7727368e-39
4.2446041 0.40236005 0.71262383 8.3898023e-39
4.2773733 0.3976064 0.73783565 8.8507805e-39
4.2674165 0.38594207 0.82597148 1.0141519e-38
4.2502556 0.62381548 -0.88020039 8.9429761e-39
4.2396216 0.62062573 -0.85349739 1.0141519e-38
4.2457557 0.61740315 -0.83165234 9.4961499e-39
4.240695 0.61104423 -0.78332669 9.1273674e-39
4.2521067 0.60462862 -0.73959291 1.1247867e-38
4.2614722 0.58877963 -0.62582976 1.0602497e-38
4.249249 0.58577919 -0.60003632 8.4819979e-39
4.2587242 0.57943147 -0.5562132 8.6663892e-39
4.2505059 0.57332933 -0.50881672 8.3898023e-39
4.2417536 0.56728524 -0.46168441 8.2976067e-39
4.2458191 0.56414586 -0.43982226 1.1063476e-38
4.2324715 0.56129974 -0.41482216 1.0141519e-38
4.2362895 0.55817699 -0.39300743 1.097128e-38
4.2573209 0.55473924 -0.37410948 1.1985432e-38
4.2609229 0.55160785 -0.3521651 1.1063476e-38
4.2470522 0.54882133 -0.32744479 1.1616649e-38
4.2504086 0.54570723 -0.30555305 1.2538606e-38
4.2536497 0.54259551 -0.28364354 1.0418106e-38
4.5003352 0.53415042 -0.29652703 1.1340062e-38
4.2423735 0.53677344 -0.23737745 1.097128e-38
4.4891558 0.52798843 -0.24778943 1.1155671e-38
4.2480202 0.53059345 -0.19362447 1.0786889e-38
4.25067 0.5275076 -0.1717256 1.0418106e-38
4.4801106 0.51864034 -0.17625861 1.0141519e-38
4.2206936 0.52225995 -0.12399887 1.0418106e-38
4.2229767 0.51920837 -0.10224083 1.1063476e-38
4.2251453 0.51615989 -0.080470629 1.1340062e-38
4.2271991 0.51311457 -0.058688827 1.2354214e-38
4.2291369 0.51007259 -0.03689602 1.4105931e-38
4.2134533 0.50755501 -0.01360291 1.3091779e-38
4.2151537 0.5045324 0.0081192162 1.1247867e-38
4.2342606 0.50096685 0.028542398 1.1616649e-38
4.2182112 0.49849772 0.051590346 1.2815193e-38
4.2195678 0.49548584 0.073338173 1.3276171e-38
4.2208095 0.49247772 0.095093392 1.1893236e-38
4.2043934 0.49007019 0.11779945 1.3460562e-38
4.2054009 0.48708236 0.13947654 1.4382518e-38
4.1887431 0.48472038 0.1619211 1.2077628e-38
4.1895185 0.48175308 0.18351761 1.3460562e-38
4.207736 0.47814304 0.20453885 1.1985432e-38
3.96246 0.48440275 0.2330731 1.5120083e-38
3.9804299 0.48093832 0.25309837 1.5120083e-38
4.2090406 0.46924171 0.2696352 1.3183975e-38
4.2092462 0.46628341 0.29133877 1.5765453e-38
4.2269006 0.46262056 0.31292003 9.3117586e-39
4.2268772 0.45965904 0.33471701 1.097128e-38
4.226738 0.45670226 0.35651419 1.2815193e-38
4.2264843 0.45375028 0.37831101 1.1893236e-38
4.2261152 0.45080322 0.40010682 1.2538606e-38
4.1729574 0.45017374 0.42090425 1.0694693e-38
4.2250328 0.44492403 0.44369313 1.2169823e-38
4.2418709 0.44119668 0.46599704 1.3460562e-38
4.2585878 0.43745002 0.48847991 1.0510302e-38
4.2400904 0.43532407 0.50974721 1.0879084e-38
4.256568 0.43156371 0.53240377 1.0694693e-38
4.2203121 0.43031731 0.55259997 1.3183975e-38
4.2540846 0.42569935 0.57630682 1.0325911e-38
4.2526689 0.42277566 0.59824902 1.1432258e-38
4.2511382 0.41985765 0.62018418 1.1708845e-38
4.2319794 0.41783828 0.64086848 1.0233715e-38
4.2652321 0.41313443 0.66536534 9.6805411e-39
4.2458496 0.41113895 0.68594164 1.2169823e-38
4.226368 0.40917358 0.70632678 9.0351717e-39
4.2417464 0.40535665 0.72973394 9.7727368e-39
4.287076 0.39380002 0.8009783 1.0049324e-38
4.2643247 0.38901025 0.84313881 9.0351717e-39
4.2693462 0.36118871 1.0463133 8.4819979e-39
4.2488194 0.62795913 -0.87960398 1.1247867e-38
4.2381253 0.62481862 -0.85291886 9.219563e-39
4.2442088 0.621584 -0.83106136 9.5883455e-39
4.250176 0.61835021 -0.80917186 8.8507805e-39
4.2560272 0.61511731 -0.78725094 1.1063476e-38
4.2447505 0.61204523 -0.76087868 1.1247867e-38
4.2673826 0.60865462 -0.74331737 8.4819979e-39
4.2441149 0.60259408 -0.69095486 8.5741936e-39
4.2493429 0.59939301 -0.66906333 1.0325911e-38
4.2544546 0.59619337 -0.64714426 1.0418106e-38
4.2594509 0.59299523 -0.6251983 1.0049324e-38
4.2471704 0.59004927 -0.59942579 8.2976067e-39
4.2519145 0.58686739 -0.57751679 1.0049324e-38
4.2565436 0.58368725 -0.55558282 1.1063476e-38
4.2438393 0.58079833 -0.53009158 1.0325911e-38
4.2393584 0.5716424 -0.46107975 8.4819979e-39
4.2606587 0.56815737 -0.44238359 9.957128e-39
4.4721942 0.56075734 -0.45742151 9.957128e-39
4.2510557 0.56221688 -0.3954041 1.2815193e-38
4.2547231 0.55907983 -0.37347129 1.2538606e-38
4.4837823 0.55084491 -0.38811821 1.2169823e-38
4.4874005 0.54754615 -0.36497656 1.2262019e-38
4.2302799 0.5505203 -0.3022885 1.1155671e-38
4.2334566 0.54741955 -0.28046197 9.957128e-39
4.2539186 0.54387808 -0.26107326 1.2354214e-38
4.5006504 0.53438067 -0.2722244 1.0233715e-38
4.4862323 0.53156626 -0.24671915 1.244641e-38
4.2624445 0.53456408 -0.19517657 1.2538606e-38
4.2301626 0.53245509 -0.16899514 9.7727368e-39
4.232636 0.52938551 -0.14716686 9.219563e-39
4.2349935 0.52631927 -0.12532538 9.6805411e-39
4.2197604 0.52378935 -0.10165014 1.0049324e-38
4.2043943 0.52128834 -0.078144334 1.2169823e-38
4.2238822 0.51769978 -0.058087923 1.3460562e-38
4.2432704 0.51408958 -0.037839118 1.1616649e-38
4.2100353 0.51220846 -0.013024634 1.4290323e-38
4.194171 0.50978553 0.010068855 1.1801041e-38
4.2307429 0.5055654 0.029161206 1.4382518e-38
4.1971159 0.50378436 0.05336614 1.3460562e-38
4.1984167 0.50078982 0.075026684 1.3644953e-38
4.1820655 0.49844599 0.097697407 9.7727368e-39
4.2006755 0.49481323 0.11836859 1.3829344e-38
4.201633 0.49183136 0.14004876 1.3644953e-38
4.2375755 0.48748559 0.16027477 1.2907388e-38
3.9574668 0.49563351 0.19236538 1.2999584e-38
3.9756 0.49213055 0.21223623 1.3644953e-38
3.9760723 0.48932856 0.23274906 1.5304475e-38
3.9764361 0.48653105 0.25326473 1.4013736e-38
4.2400942 0.47254211 0.26967362 1.2538606e-38
4.2226901 0.47032663 0.29174393 1.1708845e-38
4.2051702 0.46814087 0.31363305 1.2538606e-38
4.2050972 0.46520135 0.33534002 1.1801041e-38
4.2224693 0.46147111 0.35713786 1.2169823e-38
4.2221656 0.45852959 0.37893546 1.2354214e-38
4.2217464 0.45559338 0.40073183 1.3091779e-38
4.2738767 0.45016441 0.42361987 1.0325911e-38
4.2205639 0.4497371 0.44431865 1.2169823e-38
4.2373486 0.4459601 0.46665469 1.1708845e-38
4.2364659 0.44303367 0.48853147 1.2262019e-38
4.2354679 0.44011295 0.51040411 1.097128e-38
4.2168183 0.4380917 0.53145164 1.0694693e-38
4.2331257 0.43428901 0.55413431 1.4105931e-38
4.2493072 0.43046805 0.57699311 1.2538606e-38
4.2478414 0.42755896 0.59893394 1.1340062e-38
4.2462606 0.42465597 0.62086755 1.0325911e-38
4.5596681 0.404587 0.66575086 8.2976067e-39
4.2427511 0.41886881 0.66471076 9.8649324e-39
4.2758036 0.41402879 0.68953365 9.4961499e-39
4.2562609 0.41211724 0.71006596 1.1247867e-38
4.271565 0.40823248 0.73368418 8.3898023e-39
4.2668614 0.40246281 0.77779114 9.4961499e-39
4.2791252 0.39567128 0.82385129 8.2976067e-39
4.2317281 0.62937522 -0.86898059 1.1985432e-38
4.2378888 0.62614822 -0.84714371 1.0049324e-38
4.2439342 0.62292218 -0.82527447 9.4039542e-39
4.2498636 0.61969727 -0.80337346 8.6663892e-39
4.2386818 0.61665684 -0.77695704 1.1432258e-38
4.2443571 0.61344725 -0.75508237 9.4961499e-39
4.2669573 0.61002982 -0.73748529 1.0141519e-38
4.2553592 0.60703224 -0.71124387 9.957128e-39
4.2487926 0.60087121 -0.66324884 9.7727368e-39
4.2538671 0.59768206 -0.64131951 8.5741936e-39
4.2588253 0.5944947 -0.61936343 1.0786889e-38
4.2512088 0.58842528 -0.57168722 1.1985432e-38
4.2730036 0.58494413 -0.55334049 1.0141519e-38
4.2602749 0.58209008 -0.5277757 1.0325911e-38
4.2473946 0.57926393 -0.50236607 8.8507805e-39
4.2688761 0.5757637 -0.48376966 8.6663892e-39
4.2597222 0.5698235 -0.43652436 1.0049324e-38
4.4885702 0.56161737 -0.45431 9.4961499e-39
4.2500401 0.56394476 -0.38955331 1.2907388e-38
4.2363343 0.56123614 -0.36473241 1.0602497e-38
4.2745337 0.55727208 -0.34844211 1.0141519e-38
4.2605815 0.55458188 -0.32367331 1.1708845e-38
4.2638636 0.55146676 -0.30167645 1.3737149e-38
4.2496386 0.54882085 -0.27714258 1.2538606e-38
4.2526751 0.54572463 -0.25520167 1.2999584e-38
4.2730098 0.54213983 -0.23558336 1.0786889e-38
4.2584 0.53954172 -0.21127185 1.2722997e-38
4.2610884 0.53645533 -0.18928418 1.244641e-38
4.2462125 0.53390217 -0.16521475 9.8649324e-39
4.4756155 0.52378273 -0.16898765 1.0510302e-38
4.2684569 0.52721697 -0.12323733 1.2169823e-38
4.2357259 0.52528048 -0.097604945 1.0510302e-38
4.2378159 0.52223736 -0.075732939 1.1340062e-38
4.2222962 0.51979113 -0.052235804 1.4382518e-38
4.2066455 0.51737398 -0.028909719 1.0879084e-38
4.208374 0.51436776 -0.0071874978 1.1801041e-38
4.2450185 0.51010406 0.011861715 1.1247867e-38
4.1939645 0.50901097 0.037534732 1.3829344e-38
4.195343 0.50602967 0.059192304 1.2354214e-38
4.2316728 0.50171596 0.078721046 1.3368366e-38
4.1977563 0.50008005 0.10252958 1.2538606e-38
4.1987915 0.49711183 0.12420806 1.4751301e-38
4.2172585 0.49344239 0.14509737 1.3737149e-38
4.1829691 0.4919073 0.16828561 1.1340062e-38
4.2187624 0.48750409 0.18866318 1.4751301e-38
3.9735768 0.4949443 0.21775338 1.2722997e-38
3.974014 0.49216041 0.23826945 1.5949844e-38
