# .PCD v0.7 - Point Cloud Data file format
VERSION 0.7
FIELDS x y z rgb
SIZE 4 4 4 4
TYPE F F F F
COUNT 1 1 1 1
WIDTH 1021
HEIGHT 1
VIEWPOINT 16.3 1.15 5.78 0.47747 0.0439671 0.0646875 0.87516
POINTS 1021
DATA ascii
5.9783707 -0.10100216 0.11007914 1.2262019e-38
5.9956942 -0.10150974 0.14183035 1.2262019e-38
6.118299 -0.10079706 0.17546184 1.1893236e-38
6.047411 -0.10234093 0.20625354 1.1801041e-38
6.0290837 -0.10326935 0.23770674 1.4659105e-38
6.1335711 -0.10280878 0.27288434 1.1893236e-38
6.0270748 -0.10472725 0.30134892 1.0879084e-38
6.1136274 -0.10448964 0.33687562 1.3460562e-38
6.0419569 -0.10600085 0.36580124 1.0694693e-38
6.0579181 -0.10654875 0.39861718 1.0325911e-38
6.0561543 -0.10729022 0.43058947 1.1063476e-38
6.1243906 -0.10729204 0.46699369 1.1893236e-38
6.1398039 -0.10786241 0.50051516 9.3117586e-39
6.0673876 -0.10934421 0.52773851 1.0141519e-38
6.0999923 -0.10973702 0.56252992 1.2077628e-38
6.1148844 -0.11031693 0.59619743 1.2815193e-38
6.0770707 -0.11142669 0.62532669 1.1155671e-38
6.1091166 -0.1118397 0.66071737 1.2722997e-38
6.1234694 -0.11243331 0.69470602 1.2354214e-38
6.1376343 -0.11303292 0.72886086 1.1247867e-38
6.0991988 -0.11413627 0.7573747 1.1340062e-38
6.1130157 -0.11474129 0.79158449 1.0325911e-38
6.161541 -0.11502918 0.83019376 1.2169823e-38
6.1575155 -0.11580984 0.86270201 1.5212279e-38
6.1533203 -0.11659206 0.89518863 1.3644953e-38
6.1489544 -0.11737581 0.92765284 1.4843496e-38
6.1444192 -0.11816108 0.96009368 9.8649324e-39
6.1744895 -0.11864677 0.99765855 1.1247867e-38
6.1522126 -0.11958775 1.0275669 1.3460562e-38
6.1645136 -0.12023354 1.0627793 1.2630801e-38
6.1766157 -0.12088519 1.0981464 1.0141519e-38
6.1711869 -0.12168438 1.1307296 1.2262019e-38
6.148273 -0.12262438 1.1602554 1.1708845e-38
6.1771164 -0.12314972 1.1989269 1.244641e-38
6.1711597 -0.12395525 1.2315111 1.2169823e-38
6.1995635 -0.12449669 1.2706633 1.2354214e-38
6.2104783 -0.12517889 1.306754 8.5741936e-39
6.2039566 -0.1259951 1.3395113 1.1524454e-38
6.1800523 -0.12693857 1.3686633 1.0418106e-38
6.2075911 -0.12750763 1.4085814 1.2722997e-38
6.1661906 -0.12857276 1.4338208 1.0510302e-38
6.1933103 -0.1291533 1.4740251 9.0351717e-39
6.2201786 -0.12974408 1.5145501 1.1985432e-38
6.2125683 -0.13057442 1.5473551 8.6663892e-39
6.187696 -0.13151829 1.5760102 9.957128e-39
6.1968336 -0.13223852 1.6128428 1.0141519e-38
6.2314858 -0.13359039 1.6912935 9.7727368e-39
5.9292321 -0.15797213 -1.2638853 8.2054111e-39
5.951293 -0.16195238 -1.0719435 9.4039542e-39
5.9284544 -0.16347203 -1.0027192 8.5741936e-39
5.951364 -0.16400516 -0.974419 8.5741936e-39
5.9568129 -0.16465259 -0.94295645 1.1063476e-38
5.9447536 -0.16540867 -0.90860456 1.2354214e-38
6.0192904 -0.16563325 -0.88825929 1.1616649e-38
6.059032 -0.16608159 -0.86180139 1.0049324e-38
5.9467831 -0.16810521 -0.78024477 1.0233715e-38
5.9512148 -0.16875486 -0.74880898 1.1432258e-38
5.955482 -0.16940543 -0.71735036 1.1340062e-38
5.9421477 -0.17015137 -0.6836459 9.3117586e-39
5.9460745 -0.17080186 -0.65223569 9.3117586e-39
5.9498358 -0.17145321 -0.62080538 1.0510302e-38
5.9883718 -0.17192784 -0.59325546 1.0418106e-38
5.9743447 -0.17267157 -0.55974615 1.1432258e-38
5.9601326 -0.17341234 -0.52640235 1.1247867e-38
5.9807324 -0.17398392 -0.49657544 1.1340062e-38
5.9486656 -0.17480364 -0.46179858 9.6805411e-39
6.0039735 -0.17522013 -0.43483329 1.1155671e-38
5.9715514 -0.17603564 -0.40030235 1.2999584e-38
5.9915223 -0.17661789 -0.3700507 1.3183975e-38
6.0113416 -0.17720467 -0.33960316 1.4013736e-38
6.0134649 -0.17786759 -0.30783555 1.4198127e-38
6.0856128 -0.17825238 -0.2801896 1.244641e-38
5.9645543 -0.17939883 -0.24144553 1.2907388e-38
6.0012794 -0.17992626 -0.21162283 1.4013736e-38
6.0202942 -0.18052594 -0.18066709 1.4843496e-38
5.9864545 -0.18131612 -0.14752394 1.1801041e-38
5.9875722 -0.181979 -0.11588929 1.2262019e-38
6.0763822 -0.18235165 -0.086656801 1.1247867e-38
5.9893107 -0.18330644 -0.052604642 1.1985432e-38
5.9372053 -0.18413386 -0.020063806 1.0325911e-38
6.043117 -0.18447891 0.010078156 1.1155671e-38
6.0434093 -0.18515025 0.042007212 1.0325911e-38
6.0611115 -0.18577358 0.073915862 1.0602497e-38
6.0786467 -0.18640123 0.10600875 1.1985432e-38
5.9905486 -0.18730092 0.13730969 1.097128e-38
6.1132088 -0.1876695 0.17074373 1.0141519e-38
6.0599337 -0.18847303 0.20199774 1.1340062e-38
6.0767927 -0.18911012 0.23445071 1.3368366e-38
6.0583391 -0.18982516 0.26602235 1.0879084e-38
6.0924239 -0.19043195 0.29927254 1.5949844e-38
6.1087642 -0.19107981 0.33217013 1.2815193e-38
6.0722489 -0.19182493 0.36282551 1.0786889e-38
6.070693 -0.19250442 0.39490214 1.1432258e-38
6.1040692 -0.19312996 0.42895055 1.0325911e-38
6.1021662 -0.19381389 0.46119279 1.2538606e-38
6.1000948 -0.19449806 0.49342465 1.1616649e-38
6.115387 -0.19516118 0.5269109 9.7727368e-39
6.1129708 -0.19584772 0.55921102 1.2354214e-38
6.1279039 -0.19651709 0.59294719 1.0141519e-38
6.1251426 -0.19720595 0.62531191 1.0786889e-38
6.1222105 -0.19789495 0.6576618 1.2815193e-38
6.1191101 -0.19858408 0.68999577 1.2722997e-38
6.1333241 -0.19926377 0.72412878 1.2999584e-38
6.1124005 -0.19996266 0.75461292 1.2077628e-38
6.1437206 -0.20064075 0.79089141 1.2722997e-38
6.1573749 -0.20133042 0.8254261 1.2722997e-38
6.1533952 -0.20202579 0.85794193 1.4198127e-38
6.1492453 -0.20272116 0.89043635 1.3460562e-38
6.1623435 -0.2034187 0.92527246 1.2538606e-38
6.1926517 -0.20412423 0.96272272 1.2999584e-38
6.1705599 -0.20481934 0.99287522 1.1616649e-38
6.1483235 -0.20551048 1.0228205 1.0786889e-38
6.1780405 -0.20622756 1.0607421 1.2722997e-38
6.2248797 -0.20696425 1.1018194 1.0141519e-38
6.2194519 -0.20767093 1.1346846 1.2262019e-38
6.1792111 -0.20834582 1.1615202 1.0418106e-38
6.2080789 -0.20908386 1.2003276 1.2354214e-38
6.2021351 -0.20979007 1.2331035 1.2630801e-38
6.2132902 -0.21051775 1.2691199 1.2907388e-38
6.2242398 -0.21124911 1.3052845 8.5741936e-39
6.20051 -0.211933 1.3346909 1.1524454e-38
6.2282972 -0.2126953 1.3745109 1.2999584e-38
6.2214408 -0.21340619 1.4073902 1.3276171e-38
6.1972332 -0.21408534 1.4365103 9.6805411e-39
6.2243714 -0.21486039 1.4768516 1.0510302e-38
6.216979 -0.21557227 1.509709 1.2354214e-38
6.2436523 -0.2163583 1.5505116 1.0049324e-38
6.2016788 -0.21699496 1.5753053 1.0325911e-38
6.2449989 -0.21782912 1.620556 9.0351717e-39
6.2368536 -0.21854529 1.6535193 1.0786889e-38
6.2455673 -0.21930604 1.6907892 1.2538606e-38
5.9385376 -0.20456587 -1.2019967 9.8649324e-39
5.9517684 -0.20579499 -1.1391431 8.8507805e-39
6.0851326 -0.20671073 -1.0995997 9.219563e-39
5.953105 -0.2076854 -1.0413525 1.0325911e-38
5.9589615 -0.20830019 -1.009869 1.0325911e-38
5.9473457 -0.20895511 -0.9752773 8.7585848e-39
5.9528561 -0.2095689 -0.94382477 1.2907388e-38
5.9582014 -0.21018307 -0.91234386 9.5883455e-39
6.032793 -0.21065986 -0.89205837 1.2722997e-38
5.9683976 -0.2114124 -0.84930021 9.8649324e-39
5.9558663 -0.21205842 -0.81511527 8.8507805e-39
5.9605379 -0.21267208 -0.7836203 1.1063476e-38
5.9476366 -0.21331336 -0.74965954 1.1893236e-38
5.9693856 -0.21390022 -0.72055918 1.1616649e-38
5.9561291 -0.21453844 -0.68673533 9.5883455e-39
6.0124598 -0.21508531 -0.66174513 9.7727368e-39
5.9814172 -0.2157442 -0.62580246 9.8649324e-39
5.9850969 -0.21635927 -0.59417635 1.1708845e-38
5.9886107 -0.21697451 -0.56253135 1.0510302e-38
6.0793862 -0.21751544 -0.53988045 1.2722997e-38
6.0126362 -0.21819234 -0.50089926 1.1893236e-38
5.9806542 -0.21883245 -0.46587294 9.8649324e-39
5.9834962 -0.21944645 -0.43425298 1.0325911e-38
5.9686532 -0.22006831 -0.40118268 1.3460562e-38
5.9886832 -0.22067469 -0.37097058 1.456691e-38
6.0085616 -0.22128469 -0.34056225 1.4290323e-38
5.958128 -0.22190802 -0.30531615 1.392154e-38
6.0829487 -0.22251417 -0.28129748 1.4013736e-38
5.9970679 -0.22313172 -0.24426015 1.3737149e-38
5.9987493 -0.22374599 -0.21255727 1.4290323e-38
6.0178246 -0.22436492 -0.18163909 1.6134235e-38
5.9840493 -0.22496797 -0.14842616 1.2169823e-38
6.0027966 -0.22558858 -0.11740191 1.1985432e-38
6.0916657 -0.22625278 -0.088256754 1.3183975e-38
6.0046644 -0.22681659 -0.053934742 1.3737149e-38
6.0229239 -0.22744404 -0.02252789 1.1432258e-38
6.0410199 -0.22807491 0.0090661254 1.1708845e-38
6.0413737 -0.22869205 0.040995646 9.5883455e-39
6.0767169 -0.22934687 0.072812259 1.1801041e-38
6.0767365 -0.22996722 0.10492778 1.2999584e-38
6.0765877 -0.23058738 0.13704297 1.0602497e-38
6.0586944 -0.23118305 0.16893804 1.097128e-38
6.0757861 -0.23182702 0.20126884 1.3737149e-38
6.0751328 -0.23244648 0.23337774 1.2169823e-38
6.1445966 -0.23318397 0.2674624 1.2169823e-38
6.0908909 -0.23371592 0.29817 1.539667e-38
6.1248603 -0.23440254 0.33171433 1.244641e-38
6.0884008 -0.23495635 0.36253679 1.1524454e-38
6.0869036 -0.23557608 0.39470956 1.1155671e-38
6.085237 -0.23619546 0.42687404 1.2722997e-38
6.1184959 -0.23689488 0.4611223 1.1063476e-38
6.1164818 -0.23751703 0.49345127 1.1985432e-38
6.1318331 -0.23818251 0.52699935 1.2999584e-38
6.1294732 -0.23880561 0.55939728 1.4474714e-38
6.1269441 -0.23942827 0.59178233 1.4474714e-38
6.1417584 -0.24009949 0.62565911 1.3183975e-38
6.1388822 -0.24072297 0.65810764 1.2262019e-38
6.1533327 -0.24139851 0.69222927 1.2907388e-38
6.1501074 -0.24202275 0.72473747 1.3460562e-38
6.1292343 -0.2425904 0.75535661 1.2538606e-38
6.1955509 -0.24344309 0.79559058 1.0879084e-38
6.1568685 -0.2439518 0.82420909 1.1247867e-38
6.1529517 -0.24457557 0.85673404 1.4013736e-38
6.1663003 -0.24526182 0.89147532 1.2907388e-38
6.1620317 -0.24588613 0.92404866 1.3460562e-38
6.1924133 -0.24664295 0.96143866 1.097128e-38
6.2225733 -0.2474061 0.99916941 1.3552758e-38
6.2177396 -0.24803542 1.0320359 1.1985432e-38
6.2127342 -0.24866405 1.0648767 1.3276171e-38
6.2075567 -0.24929197 1.0976907 1.1432258e-38
6.2368898 -0.25006974 1.1362264 1.1155671e-38
6.2140121 -0.25062263 1.1662006 1.0879084e-38
6.2083035 -0.25125006 1.19902 1.3829344e-38
6.202424 -0.25187668 1.2318091 1.2354214e-38
6.230927 -0.25266695 1.271041 1.2630801e-38
6.2246695 -0.25329542 1.3039476 9.7727368e-39
6.2354822 -0.25400874 1.3402387 1.1247867e-38
6.2288623 -0.25463724 1.3731681 1.2354214e-38
6.2220697 -0.25526488 1.4060625 1.2630801e-38
6.2322922 -0.25598243 1.442609 8.8507805e-39
6.2251358 -0.25660998 1.4755203 1.1616649e-38
6.2521019 -0.25742507 1.5161293 1.1155671e-38
6.2274337 -0.2579582 1.5451858 1.0602497e-38
6.2368464 -0.25868228 1.5821174 1.0233715e-38
6.2460437 -0.2594088 1.6191875 1.1340062e-38
6.2550254 -0.26013771 1.6563944 1.1524454e-38
6.2467494 -0.26076621 1.6894218 1.2538606e-38
5.9370818 -0.22521645 -1.226938 8.8507805e-39
5.9438777 -0.22582173 -1.1955495 8.6663892e-39
5.9632778 -0.22763954 -1.1011764 8.3898023e-39
6.1075187 -0.22801839 -1.0961581 1.1616649e-38
5.9581065 -0.2288796 -1.0348738 1.0510302e-38
5.9638963 -0.22948493 -1.0033778 8.7585848e-39
5.9522076 -0.23011373 -0.96881014 1.1524454e-38
5.9576516 -0.23071778 -0.93734592 1.2169823e-38
6.0323062 -0.23124298 -0.91729474 1.3091779e-38
6.0374789 -0.23185438 -0.8854118 1.3368366e-38
5.9556208 -0.23254734 -0.84010959 1.1801041e-38
5.9603906 -0.23315036 -0.80862916 1.1340062e-38
5.9649954 -0.23375352 -0.77712423 1.3368366e-38
5.9520226 -0.23436785 -0.74319029 1.0510302e-38
5.9388595 -0.23497878 -0.70941585 8.9429761e-39
6.0824413 -0.23551831 -0.69580847 1.0049324e-38
6.0166602 -0.23615557 -0.65513963 1.1432258e-38
5.9855418 -0.23677079 -0.61926168 1.244641e-38
5.9716849 -0.23737675 -0.58567882 1.1247867e-38
6.0974803 -0.23797461 -0.56711918 1.1524454e-38
6.1008186 -0.23858874 -0.53489983 1.1893236e-38
5.9815006 -0.2391825 -0.49094385 1.1985432e-38
6.0019484 -0.23978902 -0.46091533 1.0049324e-38
5.9697022 -0.24037981 -0.42621565 1.1985432e-38
6.007349 -0.24099614 -0.39746559 1.4659105e-38
5.9572115 -0.24156992 -0.36179796 1.4659105e-38
5.9945488 -0.2421913 -0.3327471 1.4843496e-38
6.1019139 -0.24287304 -0.30781299 1.4013736e-38
5.9986076 -0.24339417 -0.26938179 1.2907388e-38
6.0003877 -0.24399538 -0.2376841 1.3368366e-38
6.0195599 -0.24461506 -0.20682572 1.6134235e-38
6.0034504 -0.24519734 -0.17426287 1.4105931e-38
6.0047326 -0.24579805 -0.14254108 1.2262019e-38
6.0058489 -0.24639854 -0.11081301 1.1985432e-38
6.0067987 -0.2469988 -0.079079546 1.2907388e-38
6.0075827 -0.24759883 -0.047341526 1.097128e-38
6.0609269 -0.24828571 -0.01648909 1.1616649e-38
6.0613823 -0.24889041 0.015531444 9.3117586e-39
6.0440922 -0.24946231 0.047666326 1.0694693e-38
6.0793676 -0.25013319 0.079557128 1.3183975e-38
6.0793195 -0.25073868 0.11167291 1.244641e-38
6.0615258 -0.25130612 0.14362432 1.0233715e-38
6.0787187 -0.25194865 0.17590152 1.5304475e-38
6.078166 -0.25255308 0.20801261 1.2630801e-38
6.0950179 -0.25320002 0.24056005 1.1801041e-38
6.0941262 -0.25380537 0.27275559 1.4198127e-38
6.1106334 -0.25445667 0.30556968 1.456691e-38
6.126965 -0.25511098 0.33856171 1.1708845e-38
6.1080003 -0.25566861 0.37011561 1.2169823e-38
6.1415401 -0.25637698 0.40417627 1.1985432e-38
6.122241 -0.2569319 0.43562177 1.2722997e-38
6.1027832 -0.25748289 0.46687397 1.2169823e-38
6.1357841 -0.25820005 0.50145721 1.2538606e-38
6.1335254 -0.25880668 0.53386259 1.4659105e-38
6.1310978 -0.25941271 0.56625575 1.5304475e-38
6.1285005 -0.26001817 0.59863579 1.1524454e-38
6.1432433 -0.26068664 0.6325438 1.5673257e-38
6.1227965 -0.26122728 0.66335279 1.1985432e-38
6.1546769 -0.26196492 0.69913864 1.3368366e-38
6.1513834 -0.26257131 0.73164022 1.4935692e-38
6.1828671 -0.26331785 0.76794088 1.1801041e-38
6.1617489 -0.26385418 0.79858941 1.244641e-38
6.1579342 -0.26446021 0.83112675 1.4382518e-38
6.1888328 -0.26521659 0.86800873 1.3460562e-38
6.202085 -0.26590177 0.90296066 1.5488866e-38
6.1628866 -0.26635286 0.9309777 1.1063476e-38
6.2105951 -0.26719943 0.97088778 1.4013736e-38
6.2232699 -0.26789078 1.0062257 1.3368366e-38
6.2183671 -0.26850069 1.0390823 1.3183975e-38
6.2132921 -0.26910976 1.0719128 1.0879084e-38
6.2253957 -0.26980537 1.1075363 1.3737149e-38
6.2372971 -0.27050346 1.1433135 1.1524454e-38
6.2143564 -0.27102256 1.1732402 1.3183975e-38
6.2258825 -0.27172226 1.2091401 1.2907388e-38
6.2372046 -0.27242434 1.2451904 1.2630801e-38
6.23105 -0.27303311 1.2781167 1.3183975e-38
6.2419763 -0.27373832 1.3143739 1.1708845e-38
6.218224 -0.27424774 1.3438704 1.2907388e-38
6.2632036 -0.27515584 1.3873281 1.1155671e-38
6.2563043 -0.27576566 1.4203887 1.0418106e-38
6.2320533 -0.27627039 1.4496884 1.0879084e-38
6.2419868 -0.27698219 1.4863991 1.0879084e-38
6.2345691 -0.27758887 1.5193471 1.097128e-38
6.2269788 -0.27819449 1.5522559 1.0418106e-38
6.2534103 -0.27902034 1.5932906 9.4039542e-39
6.2454329 -0.27962703 1.6262969 9.1273674e-39
6.2543354 -0.28034654 1.6635228 1.0510302e-38
5.9205556 -0.2046499 -1.2459193 9.3117586e-39
5.9427886 -0.21086125 -0.95646447 1.1524454e-38
5.9309216 -0.21167788 -0.92204708 1.1063476e-38
6.022912 -0.21155627 -0.90498054 1.2262019e-38
6.0454583 -0.21207154 -0.8758769 1.0233715e-38
5.9636388 -0.21350512 -0.83045757 1.0602497e-38
5.9684381 -0.21416974 -0.79888988 9.5883455e-39
5.9556737 -0.21498415 -0.76479495 1.0879084e-38
5.9601297 -0.21564969 -0.73326981 9.219563e-39
5.9644203 -0.21631663 -0.70172179 9.4039542e-39
6.003417 -0.21669982 -0.67460978 1.097128e-38
5.972506 -0.21765459 -0.63856071 9.7727368e-39
5.9588423 -0.21846426 -0.60490298 1.1340062e-38
5.9799294 -0.2189979 -0.57531846 1.0786889e-38
6.0882635 -0.21886277 -0.55484962 1.244641e-38
5.969202 -0.22047922 -0.51023018 9.957128e-39
5.9723244 -0.22115341 -0.47863793 1.1155671e-38
6.0628099 -0.22118421 -0.45497328 1.0510302e-38
5.9605589 -0.22263244 -0.41390952 1.3276171e-38
5.9631772 -0.22330832 -0.38236386 1.5673257e-38
5.9656301 -0.22398539 -0.35080495 1.5120083e-38
6.0906639 -0.2238162 -0.32778642 1.4198127e-38
5.9875813 -0.2252239 -0.28878084 1.0602497e-38
6.007091 -0.22578925 -0.25813371 1.3737149e-38
5.9737878 -0.22670506 -0.2244541 1.1524454e-38
5.9929709 -0.2272746 -0.19369632 1.392154e-38
6.0119967 -0.22784917 -0.16274664 1.1432258e-38
6.0132985 -0.22853795 -0.13093533 1.1247867e-38
5.9968657 -0.22933492 -0.098539069 1.097128e-38
6.0505447 -0.22970824 -0.068267703 1.0418106e-38
5.9810586 -0.23081674 -0.034677457 1.0510302e-38
5.9992657 -0.23140438 -0.0033325544 8.4819979e-39
6.0348859 -0.2318978 0.027988601 9.219563e-39
6.0527663 -0.23249735 0.059798405 1.0510302e-38
6.0704803 -0.23310186 0.091793366 1.244641e-38
6.0001378 -0.23417695 0.12364547 1.097128e-38
6.1054029 -0.23432565 0.15633526 1.1893236e-38
6.0698805 -0.23521221 0.18813208 1.2999584e-38
6.0869188 -0.23583031 0.22058283 1.1801041e-38
6.0862122 -0.23653835 0.25278085 1.2999584e-38
6.1029077 -0.23716417 0.28550017 1.3183975e-38
6.101861 -0.23787585 0.31778094 9.7727368e-39
6.0830817 -0.23866728 0.34934646 1.1247867e-38
6.1343799 -0.23914763 0.38392642 9.957128e-39
6.0801516 -0.24009039 0.41369098 1.1524454e-38
6.1310849 -0.24058442 0.44880605 9.5883455e-39
6.1116381 -0.2413747 0.48015508 1.0325911e-38
6.1271105 -0.24202402 0.51364756 1.0510302e-38
6.1424017 -0.24267806 0.54731232 1.1985432e-38
6.1049318 -0.24353097 0.57709152 1.1708845e-38
6.1198764 -0.24418835 0.61082274 1.0786889e-38
6.1521478 -0.24478981 0.64625919 1.1616649e-38
6.1492109 -0.24551718 0.6787926 1.1524454e-38
6.1461043 -0.24624512 0.71131009 1.392154e-38
6.142827 -0.2469736 0.74381095 1.1524454e-38
6.1393795 -0.24770263 0.77629417 1.0879084e-38
6.170691 -0.24833146 0.81274575 1.1340062e-38
6.1843362 -0.24901728 0.84745878 1.2077628e-38
6.1977887 -0.24970771 0.88233399 1.244641e-38
6.1761837 -0.25049108 0.91283542 1.3829344e-38
6.1892695 -0.25118649 0.94784951 1.0510302e-38
6.167347 -0.2519666 0.97812307 1.1432258e-38
6.2148523 -0.25259095 1.0183541 1.1247867e-38
6.1925859 -0.2533718 1.0485785 1.0602497e-38
6.1875424 -0.25411502 1.0813177 1.1155671e-38
6.1996784 -0.25482675 1.1168439 1.0602497e-38
6.1942763 -0.25557268 1.1496195 1.1893236e-38
6.2060242 -0.25629124 1.1853614 1.3644953e-38
6.2175684 -0.25701419 1.2212551 1.1247867e-38
6.2289085 -0.25774154 1.2572991 1.0325911e-38
6.2227707 -0.25849473 1.2902255 1.1155671e-38
6.2337155 -0.25922874 1.3264767 1.3552758e-38
6.2272148 -0.2599844 1.3594275 1.2262019e-38
6.2205424 -0.26074025 1.3923435 1.1708845e-38
6.2136979 -0.26149625 1.4252242 1.1063476e-38
6.2410417 -0.26223016 1.4655043 9.6805411e-39
6.2338133 -0.26299053 1.4984912 8.8507805e-39
6.2264128 -0.263751 1.5314399 1.1801041e-38
6.2359591 -0.26450664 1.5683366 9.5883455e-39
6.2281923 -0.26526931 1.6012955 9.4961499e-39
6.220253 -0.26603201 1.6342132 1.0233715e-38
5.9349508 -0.1842581 -1.0074863 9.6805411e-39
5.9461932 -0.18572432 -0.94462585 1.1616649e-38
5.9515672 -0.18646137 -0.9131524 1.1340062e-38
5.9394269 -0.18747309 -0.8788355 8.8507805e-39
5.9444566 -0.18821321 -0.84739846 9.4039542e-39
5.9493213 -0.1889559 -0.81593561 9.5883455e-39
5.9366302 -0.18996671 -0.78190476 1.0786889e-38
5.9585567 -0.19044885 -0.75293583 1.1340062e-38
5.9629259 -0.19119909 -0.7214005 1.1063476e-38
5.9671307 -0.19195181 -0.68984294 9.4039542e-39
5.9711704 -0.19270699 -0.6582638 9.8649324e-39
5.9612899 -0.19447716 -0.59304869 1.1340062e-38
5.94735 -0.19548769 -0.55959743 1.097128e-38
6.1430163 -0.19351883 -0.5480634 1.1708845e-38
5.936408 -0.19725668 -0.49491197 9.3117586e-39
5.9394264 -0.19801949 -0.4634966 9.7727368e-39
5.9247718 -0.19902603 -0.43052799 1.2077628e-38
5.9800043 -0.19907357 -0.40351325 1.4474714e-38
5.9650197 -0.20008463 -0.37051654 1.5212279e-38
5.9673867 -0.20085873 -0.33895329 1.3552758e-38
5.9871259 -0.2014026 -0.30854914 1.1432258e-38
5.9716249 -0.20241356 -0.27579197 1.2077628e-38
6.0085931 -0.2027384 -0.24617022 1.1708845e-38
5.9752007 -0.20397706 -0.21258993 1.5304475e-38
5.9416237 -0.20520875 -0.17936873 1.0602497e-38
5.9956765 -0.205328 -0.15006572 1.1247867e-38
5.9793229 -0.20633823 -0.1177257 1.0602497e-38
5.9803662 -0.20712943 -0.086091444 1.0141519e-38
5.9812431 -0.20792268 -0.054452214 8.5741936e-39
5.9995284 -0.20850609 -0.023152623 1.2077628e-38
5.9825001 -0.20951523 0.0088377101 8.3898023e-39
6.1059136 -0.20886393 0.039368413 9.4961499e-39
6.0709786 -0.21009122 0.071798414 8.9429761e-39
6.00072 -0.21171625 0.10381249 1.1155671e-38
6.0181785 -0.21232343 0.13567166 1.0694693e-38
6.0530453 -0.2127393 0.16792201 1.2815193e-38
6.0701661 -0.21336198 0.20023809 1.1524454e-38
6.05197 -0.21437757 0.23195074 1.2077628e-38
6.0863214 -0.21481788 0.26492846 1.1524454e-38
6.1029267 -0.2154579 0.29769319 1.1893236e-38
6.084228 -0.21647662 0.32929996 9.4039542e-39
6.1004887 -0.21712498 0.36223665 1.1432258e-38
6.0639038 -0.2183238 0.3927938 9.7727368e-39
6.1149273 -0.21862023 0.42769474 9.957128e-39
6.113112 -0.21946229 0.46003053 1.1063476e-38
6.1111269 -0.22030605 0.4923563 1.0141519e-38
6.1089735 -0.2211515 0.5246712 1.0879084e-38
6.1066504 -0.2219986 0.55697435 1.3183975e-38
6.1392002 -0.22251353 0.59207064 1.2354214e-38
6.1365237 -0.2233687 0.62453097 9.957128e-39
6.1161718 -0.22438754 0.6553905 1.1247867e-38
6.1306615 -0.22508383 0.68940723 1.1155671e-38
6.1274748 -0.22594373 0.72182137 1.2169823e-38
6.1590762 -0.22649558 0.75794023 1.1432258e-38
6.1555309 -0.22736338 0.79050213 1.1155671e-38
6.1692734 -0.22808276 0.82508874 1.1247867e-38
6.1653762 -0.22895595 0.85770291 1.392154e-38
6.1787438 -0.22968559 0.89252275 1.1708845e-38
6.1744933 -0.2305641 0.9251855 1.2077628e-38
6.1874833 -0.23130392 0.9602344 1.2169823e-38
6.182878 -0.23218767 0.9929418 1.2630801e-38
6.1607161 -0.23320794 1.0230336 1.3183975e-38
6.190526 -0.2338265 1.060964 1.0786889e-38
6.2027507 -0.23458649 1.0964588 1.2815193e-38
6.1974316 -0.23548047 1.1292441 1.2722997e-38
6.1919413 -0.2363757 1.162001 1.244641e-38
6.2209029 -0.2370266 1.200819 1.1155671e-38
6.2150373 -0.23792927 1.2336977 1.2354214e-38
6.1917205 -0.23895095 1.2633191 1.1708845e-38
6.2373142 -0.23950754 1.3059939 1.1063476e-38
6.2308969 -0.24041872 1.338957 1.1893236e-38
6.2243075 -0.24133103 1.3718859 1.1708845e-38
6.217546 -0.24224444 1.4047798 1.3737149e-38
6.2106123 -0.24315892 1.4376379 1.1985432e-38
6.2305279 -0.24479045 1.5109566 1.1155671e-38
6.2230372 -0.24571306 1.5438811 1.0049324e-38
6.2324834 -0.24654138 1.5808021 1.0879084e-38
6.2246275 -0.24746844 1.6137356 1.3737149e-38
5.9152703 -0.16276343 -1.333783 8.5741936e-39
5.9299893 -0.16459881 -1.2710868 8.3898023e-39
5.9199505 -0.16591856 -1.2358559 9.3117586e-39
5.9268789 -0.16684315 -1.2045043 1.0141519e-38
5.9230328 -0.16909193 -1.1381381 8.3898023e-39
5.9417505 -0.17511748 -0.94644773 8.3898023e-39
5.9471631 -0.17606956 -0.91498667 8.5741936e-39
5.9524102 -0.17702515 -0.88349771 8.5741936e-39
6.0442886 -0.17616512 -0.86569083 9.7727368e-39
5.9450369 -0.17930782 -0.81778908 8.8507805e-39
5.9497752 -0.18027101 -0.78631288 1.1247867e-38
5.9369488 -0.18159308 -0.75234354 1.2815193e-38
5.9587569 -0.18220757 -0.72328854 1.0325911e-38
5.9455752 -0.18353072 -0.68945551 1.1985432e-38
6.124012 -0.18103421 -0.6799323 9.6805411e-39
5.9884396 -0.1847932 -0.63068908 1.0510302e-38
5.9747381 -0.1861206 -0.59697616 8.5741936e-39
5.9608498 -0.18744552 -0.56342691 1.1063476e-38
5.9817352 -0.18809664 -0.53370196 1.0786889e-38
6.1248956 -0.18642724 -0.51594496 1.244641e-38
5.953074 -0.19074523 -0.4670648 1.2077628e-38
5.9734812 -0.19141154 -0.43710747 9.6805411e-39
5.9411969 -0.19305909 -0.40256166 1.2999584e-38
5.9612823 -0.19373442 -0.37248421 1.3644953e-38
5.9636879 -0.19473693 -0.34093034 1.539667e-38
5.9659281 -0.19574243 -0.30936441 1.5488866e-38
5.9855442 -0.19643846 -0.27888379 1.1524454e-38
6.0225525 -0.19683382 -0.24921387 1.0418106e-38
5.9892087 -0.1984701 -0.21551561 1.3368366e-38
5.9907913 -0.19949029 -0.18381816 1.1432258e-38
5.9922085 -0.20051335 -0.15211292 1.1616649e-38
5.9758954 -0.2018369 -0.11976364 1.1708845e-38
6.0999475 -0.20079991 -0.091954023 1.1063476e-38
6.0833125 -0.20214105 -0.059225731 1.1801041e-38
5.9962158 -0.20463371 -0.025231753 1.1247867e-38
5.9968023 -0.20567071 0.0064992569 1.0141519e-38
6.032372 -0.20614508 0.037878104 9.6805411e-39
6.0502033 -0.20691384 0.069711939 8.9429761e-39
6.0854435 -0.2074147 0.10173719 1.1893236e-38
6.0677881 -0.2087511 0.13383451 1.1247867e-38
6.1026902 -0.20927243 0.16631868 1.1063476e-38
6.102272 -0.21034351 0.19860381 1.2354214e-38
6.0665407 -0.21194601 0.23013712 9.4961499e-39
6.1009283 -0.21249336 0.26316503 1.2538606e-38
6.1000028 -0.21357208 0.29543933 1.1432258e-38
6.0813441 -0.2149085 0.32705787 1.0694693e-38
6.0976448 -0.21573696 0.35997096 1.0325911e-38
6.0962119 -0.21682304 0.39222649 1.2630801e-38
6.0946107 -0.21791153 0.42447403 1.0602497e-38
6.1103873 -0.21875955 0.45773056 1.0049324e-38
6.1084423 -0.21985584 0.49005118 1.0879084e-38
6.0887933 -0.22119103 0.52115953 1.0233715e-38
6.1215744 -0.2218219 0.55595267 1.244641e-38
6.1191144 -0.2229282 0.58833027 1.3460562e-38
6.1164861 -0.22403669 0.6206944 1.1893236e-38
6.1487007 -0.22469935 0.65618098 1.2077628e-38
6.1107192 -0.22626029 0.68537897 1.1063476e-38
6.1250715 -0.22715759 0.7194491 1.0786889e-38
6.1217561 -0.22827786 0.75184232 1.1985432e-38
6.1532102 -0.22897747 0.78808653 1.1708845e-38
6.184454 -0.22969183 0.82467753 1.0786889e-38
6.1631379 -0.23103602 0.85526258 1.244641e-38
6.1591096 -0.23217402 0.88785273 1.4474714e-38
6.1549115 -0.23331399 0.9204213 1.244641e-38
6.1679564 -0.23426045 0.95535827 1.0233715e-38
6.163404 -0.23540749 0.98797196 1.2262019e-38
6.1760688 -0.23636737 1.0231344 1.1985432e-38
6.2059102 -0.23714972 1.0611175 1.244641e-38
6.183444 -0.23849458 1.0911733 1.0325911e-38
6.2128706 -0.23929666 1.1295573 1.2630801e-38
6.1727452 -0.24081802 1.1565304 1.097128e-38
6.2017689 -0.24163654 1.19522 9.6805411e-39
6.2132587 -0.24263941 1.2311244 1.1708845e-38
6.2072611 -0.24381687 1.2639709 1.2538606e-38
6.2010922 -0.24499598 1.2967851 9.8649324e-39
6.2292466 -0.24585687 1.3363445 9.957128e-39
6.2226982 -0.24704571 1.3692727 9.7727368e-39
6.2159777 -0.24823612 1.4021661 1.0602497e-38
6.2090845 -0.24942808 1.4350239 1.2907388e-38
6.2020197 -0.25062153 1.4678451 1.0233715e-38
6.211936 -0.25167283 1.5044676 1.0325911e-38
6.2045069 -0.25287247 1.5373025 9.4961499e-39
6.2311306 -0.25379944 1.5781344 1.0694693e-38
6.2233152 -0.25500843 1.6110686 1.2815193e-38
5.921834 -0.19428842 -1.2073594 9.5883455e-39
6.1245379 -0.19262081 -1.1838346 8.6663892e-39
6.0922251 -0.19675682 -1.0765131 8.9429761e-39
6.1156049 -0.19748254 -1.0474524 1.1616649e-38
5.931293 -0.20206809 -0.98075718 8.2976067e-39
5.936893 -0.20309438 -0.94933134 1.0141519e-38
5.9596567 -0.20380872 -0.92081398 1.0879084e-38
5.9649425 -0.20484401 -0.88924062 1.1063476e-38
5.9353466 -0.20650031 -0.85212851 1.1340062e-38
5.9402728 -0.20753554 -0.82068348 1.0694693e-38
5.9450345 -0.20857365 -0.78921324 1.1616649e-38
5.96703 -0.20931464 -0.76020139 1.2538606e-38
5.9714746 -0.21036151 -0.72859204 1.097128e-38
5.9409041 -0.21199915 -0.69235855 9.219563e-39
6.0670476 -0.21100898 -0.6763531 1.0879084e-38
6.0710516 -0.21207944 -0.64422166 1.0510302e-38
5.9875941 -0.21457693 -0.60193568 1.1708845e-38
5.9737401 -0.21591944 -0.56828576 9.8649324e-39
5.9771791 -0.21697976 -0.53664434 1.0049324e-38
6.0853825 -0.21638878 -0.51550031 1.1708845e-38
5.9485645 -0.21965346 -0.46998802 1.2077628e-38
5.9514885 -0.22071545 -0.43847993 1.1247867e-38
5.9542475 -0.22177997 -0.406957 1.2169823e-38
5.9918847 -0.22232042 -0.37819222 1.244641e-38
5.9943275 -0.22339618 -0.34645885 1.4382518e-38
5.9615335 -0.22498852 -0.3123081 1.5212279e-38
6.0688787 -0.22453925 -0.28739929 1.1893236e-38
6.0357513 -0.22613646 -0.25322655 1.0510302e-38
5.9497795 -0.22846657 -0.21663003 1.1616649e-38
5.9689326 -0.22930039 -0.18595485 1.5488866e-38
6.0054903 -0.22990143 -0.1558314 1.4659105e-38
6.0243325 -0.23075561 -0.12468185 1.1247867e-38
5.9903116 -0.23232356 -0.091663696 1.1893236e-38
6.0791049 -0.23225781 -0.062281046 1.1155671e-38
5.9920287 -0.23451318 -0.028218174 1.097128e-38
6.045361 -0.23493466 0.0026593793 9.5883455e-39
5.9930811 -0.23671147 0.035241555 8.2976067e-39
6.0812407 -0.23671804 0.066476062 9.4961499e-39
6.0813532 -0.23783842 0.098669939 1.3276171e-38
6.0812964 -0.23896089 0.13086389 1.2354214e-38
6.0810714 -0.24008539 0.16305701 9.1273674e-39
6.0455279 -0.24162452 0.19471204 1.1432258e-38
6.1152616 -0.24193422 0.22815771 9.957128e-39
6.0969553 -0.24327098 0.26007491 1.1432258e-38
6.0784845 -0.2446032 0.29180384 1.3552758e-38
6.0949821 -0.24554406 0.32461575 1.3183975e-38
6.0937419 -0.2466834 0.35687739 1.0418106e-38
6.1098905 -0.2476377 0.38995188 1.1247867e-38
6.090754 -0.24896756 0.42137885 1.1801041e-38
6.1065559 -0.24993193 0.45462039 1.1801041e-38
6.1572633 -0.25055039 0.49022663 1.1155671e-38
6.1551552 -0.25171167 0.52281159 1.2630801e-38
6.135345 -0.25304517 0.55410612 1.0879084e-38
6.1153784 -0.25437379 0.58520472 1.4105931e-38
6.1127729 -0.25553346 0.61756897 1.3183975e-38
6.1450148 -0.25637332 0.653027 1.1708845e-38
6.1420536 -0.25754273 0.68554521 1.4105931e-38
6.1564131 -0.25855955 0.71978462 1.1708845e-38
6.1531019 -0.25973532 0.75236142 1.2169823e-38
6.1496201 -0.26091251 0.78492051 9.7727368e-39
6.1634302 -0.26194698 0.81947225 1.2538606e-38
6.1944995 -0.26284862 0.85628986 1.2999584e-38
6.1730323 -0.26417756 0.88686973 1.4290323e-38
6.2037029 -0.26509854 0.92410165 1.1432258e-38
6.1644883 -0.26655772 0.9521696 1.1616649e-38
6.2121706 -0.26736704 0.99218792 9.219563e-39
6.2074318 -0.2685703 1.0250522 1.1801041e-38
6.2372742 -0.26953301 1.0631905 1.2077628e-38
6.2148004 -0.27086297 1.0934445 1.1340062e-38
6.2268791 -0.27195895 1.1291523 1.1340062e-38
6.2214227 -0.27317363 1.1620914 1.097128e-38
6.2504292 -0.27417436 1.2010269 9.219563e-39
6.2099929 -0.27560627 1.2278813 1.2999584e-38
6.2040186 -0.27682418 1.2607305 1.2077628e-38
6.23241 -0.27784815 1.3001163 1.0510302e-38
6.2605596 -0.27888656 1.3398308 8.5741936e-39
6.219533 -0.28030229 1.3660132 1.1893236e-38
6.2300506 -0.28144336 1.4024649 9.6805411e-39
6.2231622 -0.28267604 1.4354162 1.0141519e-38
6.2332778 -0.28382894 1.4720658 9.957128e-39
6.2431817 -0.28498939 1.5088576 1.0418106e-38
6.2357359 -0.28623125 1.541876 1.0049324e-38
6.2623487 -0.28733283 1.5828629 1.1340062e-38
6.2374201 -0.28865004 1.6118869 1.1155671e-38
5.9464211 -0.24555254 -1.2430412 9.4039542e-39
5.9534564 -0.2466097 -1.2115287 8.9429761e-39
6.0806246 -0.24596018 -1.20579 9.7727368e-39
6.0661516 -0.24968658 -1.1022087 9.6805411e-39
6.0724483 -0.25077057 -1.0700719 1.2999584e-38
6.1131282 -0.25139892 -1.0443751 8.9429761e-39
5.9864707 -0.25537306 -0.95513821 9.4961499e-39
6.0612974 -0.25556844 -0.93527913 1.1985432e-38
6.014698 -0.25730738 -0.89454824 1.1063476e-38
6.0199075 -0.25838912 -0.86268371 1.5212279e-38
5.9728413 -0.26010445 -0.82271546 1.0418106e-38
6.0645909 -0.26014382 -0.80407804 1.1708845e-38
5.9823418 -0.26225948 -0.7594018 1.1247867e-38
6.0042524 -0.26313871 -0.73012793 9.957128e-39
6.0086002 -0.2642242 -0.69832051 1.2722997e-38
6.0825181 -0.26453155 -0.67543876 1.4843496e-38
6.0691328 -0.26582518 -0.64107686 1.1247867e-38
6.0206428 -0.26749188 -0.60276812 1.2169823e-38
5.9893889 -0.26895601 -0.56695086 9.3117586e-39
6.0627909 -0.26931447 -0.54270995 1.4290323e-38
6.0661559 -0.27041715 -0.51059908 1.2815193e-38
6.0343609 -0.27187395 -0.47509387 1.0418106e-38
6.0023627 -0.27331987 -0.43993872 1.0418106e-38
6.0402155 -0.27407524 -0.4111563 9.8649324e-39
6.0078511 -0.2755118 -0.37633806 1.4290323e-38
5.9577627 -0.27710083 -0.34055111 1.3829344e-38
6.0477414 -0.27738926 -0.31514406 1.4751301e-38
6.0674548 -0.27833983 -0.28425378 1.3460562e-38
6.0343738 -0.27976039 -0.25002894 1.2169823e-38
6.0186539 -0.28101882 -0.21711624 1.5120083e-38
6.0378699 -0.281977 -0.18610412 1.5949844e-38
6.0042458 -0.28337637 -0.15258671 1.5488866e-38
6.0406966 -0.28419924 -0.12214636 1.3368366e-38
6.0418587 -0.28531238 -0.09015733 1.1432258e-38
6.0604239 -0.28629196 -0.058658037 9.4039542e-39
6.078826 -0.28727925 -0.026970105 1.2538606e-38
6.0267644 -0.28878811 0.0061512981 9.4961499e-39
6.062407 -0.28965262 0.037626613 1.0418106e-38
6.0451541 -0.29089731 0.069854334 9.7727368e-39
6.0804658 -0.29178026 0.10179285 1.4382518e-38
6.0804539 -0.29290846 0.13398665 1.2169823e-38
6.0802736 -0.29403773 0.1661799 1.0694693e-38
6.0447721 -0.2953864 0.19789083 1.0141519e-38
6.1321311 -0.29598179 0.23155852 1.1155671e-38
6.1314387 -0.29712394 0.26402071 1.2815193e-38
6.1481466 -0.29816765 0.29699516 1.2077628e-38
6.1295443 -0.29941118 0.32893196 1.1893236e-38
6.145906 -0.30046326 0.36207935 1.1247867e-38
6.1269693 -0.30170214 0.39381963 1.0325911e-38
6.142983 -0.30276248 0.42713636 1.2722997e-38
6.1588168 -0.30383015 0.46062827 1.1616649e-38
6.1569238 -0.30498508 0.49322668 1.5765453e-38
6.18994 -0.30598742 0.52813363 1.3552758e-38
6.1526265 -0.30729729 0.55839151 1.1708845e-38
6.1677485 -0.30838427 0.59229904 1.0325911e-38
6.1651659 -0.3095454 0.62494224 1.244641e-38
6.179924 -0.31064352 0.65909773 1.0418106e-38
6.1419845 -0.31192997 0.68856782 1.1340062e-38
6.1913819 -0.31291834 0.7262032 1.1893236e-38
6.1880975 -0.31408843 0.75896811 1.0418106e-38
6.2370687 -0.31510729 0.79739273 1.1063476e-38
6.163548 -0.31647745 0.82246006 1.0602497e-38
6.1946702 -0.31755766 0.85922831 1.1616649e-38
6.2255769 -0.31865144 0.89634156 1.2815193e-38
6.238833 -0.31979617 0.93154067 1.4382518e-38
6.2170515 -0.32101625 0.96220177 1.3552758e-38
6.2125306 -0.3221992 0.9950974 1.0418106e-38
6.2600217 -0.32329947 1.0355625 1.1247867e-38
6.2724972 -0.32446846 1.0713042 1.4290323e-38
6.2326689 -0.32570753 1.0990621 1.2907388e-38
6.2447839 -0.32688025 1.1348414 1.1432258e-38
6.274034 -0.32804513 1.173669 1.1893236e-38
6.268404 -0.32924584 1.2068597 1.0233715e-38
6.21068 -0.33047056 1.2307925 1.0510302e-38
6.2566233 -0.33164752 1.2731503 8.7585848e-39
6.2850204 -0.33284563 1.3127623 1.2354214e-38
6.25489 -0.33525547 1.3757833 1.0694693e-38
6.2654219 -0.33646807 1.4123985 1.2354214e-38
6.2929454 -0.33769885 1.452776 1.2907388e-38
6.2686706 -0.33889765 1.4823538 9.4961499e-39
6.2785869 -0.34012628 1.5193093 1.1247867e-38
6.2711463 -0.34133974 1.5525187 1.1893236e-38
6.3320208 -0.34265229 1.6015965 1.0879084e-38
6.3412499 -0.34390649 1.6391507 8.3898023e-39
6.06879 -0.29977766 -1.244722 9.6805411e-39
5.9899235 -0.30141202 -1.1940004 9.4039542e-39
6.0787077 -0.30412444 -1.1123825 1.1247867e-38
6.0511699 -0.30865294 -0.97406948 1.1063476e-38
6.0102377 -0.31102866 -0.90119892 1.0049324e-38
6.0154815 -0.31207624 -0.86933887 1.0141519e-38
6.0379248 -0.31304213 -0.84016728 1.1432258e-38
6.0602288 -0.31401482 -0.81078768 1.1432258e-38
6.0302091 -0.31522372 -0.77360022 1.1801041e-38
5.9999681 -0.31642139 -0.73675251 9.5883455e-39
6.0566101 -0.31725529 -0.7120024 1.3091779e-38
6.0782938 -0.31824282 -0.68216234 1.0879084e-38
6.0300579 -0.31949505 -0.64344257 1.0233715e-38
6.0339503 -0.32054538 -0.61148238 8.7585848e-39
6.0202098 -0.3216548 -0.57751602 1.0510302e-38
6.0587087 -0.32259229 -0.54939771 1.3183975e-38
6.0446229 -0.3236998 -0.51548553 1.3276171e-38
6.0478449 -0.3247523 -0.48345083 1.1155671e-38
6.0684028 -0.32575881 -0.4530198 1.0418106e-38
6.0537858 -0.32685873 -0.41933295 1.0694693e-38
6.0389848 -0.32795304 -0.38581473 1.1985432e-38
6.0415277 -0.32900426 -0.35381126 1.2999584e-38
6.0439029 -0.33005586 -0.32179493 1.5488866e-38
6.0461102 -0.33110777 -0.28976661 1.2077628e-38
6.0481501 -0.33216 -0.25772721 1.2262019e-38
6.0324707 -0.33323786 -0.2246995 1.4105931e-38
6.0341697 -0.33428758 -0.19273233 1.4105931e-38
6.0708213 -0.33529881 -0.16234531 1.1155671e-38
6.1248856 -0.33630598 -0.13228546 1.1524454e-38
6.0733962 -0.33741128 -0.098004557 1.0141519e-38
6.0928702 -0.33951697 -0.034066942 9.6805411e-39
6.1111445 -0.34057233 -0.0021208958 1.0049324e-38
6.077075 -0.34375077 0.095130049 1.1985432e-38
6.1649885 -0.34484649 0.12749296 9.8649324e-39
6.1296849 -0.34589642 0.15989815 8.7585848e-39
6.1293678 -0.34696189 0.19236879 1.0141519e-38
6.1464558 -0.3480441 0.22514664 1.1340062e-38
6.1457968 -0.34911227 0.25770417 1.1708845e-38
6.1449666 -0.35018027 0.29025778 1.1893236e-38
6.1439662 -0.35124806 0.32280663 1.1340062e-38
6.2130556 -0.35243133 0.35805818 9.3117586e-39
6.1765766 -0.35344672 0.38942441 1.0325911e-38
6.1750565 -0.35451967 0.42213732 1.0786889e-38
6.1733646 -0.35559228 0.45484182 9.4961499e-39
6.2065954 -0.35674652 0.48962623 1.2077628e-38
6.2045498 -0.35782439 0.52249491 1.3460562e-38
6.202332 -0.35890183 0.55535233 1.1616649e-38
6.1999426 -0.3599788 0.58819783 1.0141519e-38
6.1973805 -0.36105528 0.62103027 8.7585848e-39
6.1946464 -0.36213127 0.65384889 9.8649324e-39
6.2092462 -0.36326569 0.68824774 1.0786889e-38
6.2586503 -0.36452967 0.72618717 8.6663892e-39
6.2378769 -0.36555085 0.7575469 1.0049324e-38
6.2693839 -0.36676952 0.79431474 9.4039542e-39
6.2482734 -0.36778638 0.8255468 9.957128e-39
6.2619247 -0.36894462 0.8606813 9.7727368e-39
6.2404876 -0.36995405 0.89169073 1.097128e-38
6.2712054 -0.37119678 0.92920125 9.4039542e-39
6.249433 -0.37220168 0.9600758 1.0141519e-38
6.2797441 -0.37345773 0.99799693 9.4961499e-39
6.275034 -0.37454692 1.0312414 1.2354214e-38
6.3049192 -0.37581912 1.0696598 9.8649324e-39
6.2824626 -0.37681749 1.1003445 9.6805411e-39
6.2772169 -0.37790692 1.1336019 1.2169823e-38
6.3181815 -0.38039431 1.2089204 9.5883455e-39
6.312366 -0.38148957 1.242363 8.2054111e-39
6.2890806 -0.38247398 1.2726309 1.2538606e-38
6.334765 -0.38390234 1.3156239 9.957128e-39
6.31113 -0.38488448 1.3458272 1.1432258e-38
6.3045974 -0.38597819 1.3792311 1.0786889e-38
6.2978897 -0.38707072 1.4126004 1.1893236e-38
6.3355122 -0.38963458 1.4902877 8.6663892e-39
6.27672 -0.39034075 1.5124916 9.5883455e-39
6.3644972 -0.39333221 1.6026239 9.219563e-39
6.3566184 -0.39443445 1.6363035 8.3898023e-39
5.9945989 -0.35566708 -1.3241301 8.3898023e-39
6.0474687 -0.36058253 -1.1683973 1.0510302e-38
6.0541191 -0.3615703 -1.1363286 1.097128e-38
6.0496588 -0.36354545 -1.0687454 8.9429761e-39
6.0385132 -0.3645272 -1.0334133 1.3552758e-38
6.0444565 -0.36550945 -1.0013933 9.7727368e-39
6.0329251 -0.36648279 -0.96627021 9.4039542e-39
6.0211935 -0.36745051 -0.93129855 9.4039542e-39
6.0439415 -0.36844134 -0.90226167 9.957128e-39
6.0491982 -0.36942041 -0.87021506 1.1155671e-38
6.0542865 -0.37039933 -0.83814126 1.1340062e-38
6.007061 -0.37130994 -0.79818553 1.0602497e-38
6.0291686 -0.3723056 -0.76886082 9.6805411e-39
6.0511351 -0.37330654 -0.73932964 1.2999584e-38
6.0555377 -0.37428176 -0.70724744 1.1985432e-38
6.0423398 -0.37522286 -0.67288846 1.0049324e-38
6.081284 -0.37626779 -0.64517885 9.3117586e-39
6.0677376 -0.37720546 -0.61086845 9.1273674e-39
6.0714674 -0.37817931 -0.57870102 1.3829344e-38
6.0400767 -0.37906304 -0.54273695 1.1985432e-38
6.0784216 -0.38012576 -0.51430964 1.0786889e-38
6.0291605 -0.38094717 -0.4769704 1.0602497e-38
6.0496931 -0.38196409 -0.44662061 1.2354214e-38
6.0700746 -0.38298604 -0.41607216 1.2077628e-38
6.0727844 -0.38395429 -0.38389495 1.4198127e-38
6.0577984 -0.38486055 -0.35036489 1.5673257e-38
6.0601635 -0.38582489 -0.31825277 1.2722997e-38
6.0623612 -0.38678864 -0.2861287 1.1063476e-38
6.0819359 -0.38782141 -0.25505725 1.3276171e-38
6.031148 -0.38856927 -0.21990435 1.456691e-38
6.0503864 -0.38960066 -0.18881339 1.1708845e-38
6.1221471 -0.39087063 -0.15989466 1.1893236e-38
6.0708218 -0.39159709 -0.12535957 9.219563e-39
6.0895753 -0.39263999 -0.093786441 9.5883455e-39
6.1257377 -0.3937737 -0.062535934 1.097128e-38
6.1090217 -0.39465088 -0.029651579 1.1247867e-38
6.1448555 -0.3957966 0.0020677657 9.6805411e-39
6.0926452 -0.39648059 0.035340179 8.2976067e-39
6.0754123 -0.39734143 0.067774132 1.1616649e-38
6.1634755 -0.39879474 0.099711075 1.0602497e-38
6.1634827 -0.39976171 0.13237052 9.4039542e-39
6.1633177 -0.40072766 0.16502957 9.4039542e-39
6.162982 -0.40169257 0.19768734 1.1801041e-38
6.1624746 -0.40265644 0.23034295 1.2354214e-38
6.161797 -0.40361923 0.26299548 1.2815193e-38
6.1609483 -0.40458092 0.29564402 1.2722997e-38
6.2126312 -0.40589792 0.33006215 1.1708845e-38
6.2289948 -0.40698692 0.36365932 1.1247867e-38
6.2276173 -0.40795594 0.3966583 9.8649324e-39
6.173399 -0.40854302 0.42704797 9.6805411e-39
6.2067933 -0.40976068 0.46167332 1.1340062e-38
6.2049026 -0.41072327 0.49455485 1.3737149e-38
6.2379212 -0.41195452 0.5297116 1.0141519e-38
6.2181396 -0.41278216 0.56152058 9.6805411e-39
6.2157264 -0.41374347 0.59446025 1.0233715e-38
6.2657008 -0.41513237 0.63164085 9.219563e-39
6.2454071 -0.41595322 0.66331881 9.8649324e-39
6.2249556 -0.41676727 0.69479853 1.0049324e-38
6.2393394 -0.41787654 0.72946501 9.5883455e-39
6.2360458 -0.41883597 0.76251346 9.0351717e-39
6.2500563 -0.41995019 0.79742014 1.1524454e-38
6.2638736 -0.42106816 0.83249128 1.1155671e-38
6.2774963 -0.42218986 0.86772561 1.2262019e-38
6.3083687 -0.42347947 0.90527231 1.1340062e-38
6.3041534 -0.42444423 0.9386797 1.0049324e-38
6.282341 -0.42523777 0.96973199 9.8649324e-39
6.2777882 -0.42619652 1.0030024 1.0786889e-38
6.3078542 -0.42750308 1.0412784 1.097128e-38
6.3203092 -0.42864096 1.0772873 1.1616649e-38
6.3151927 -0.4296023 1.1107551 1.0879084e-38
6.3446102 -0.43092701 1.149771 9.6805411e-39
6.3044338 -0.43151948 1.177608 9.3117586e-39
6.3161168 -0.43266311 1.2139606 1.2722997e-38
6.3102841 -0.43361959 1.2474046 1.3644953e-38
6.338861 -0.43496016 1.2871186 1.1524454e-38
6.3153691 -0.43572238 1.3174399 1.1801041e-38
6.3089948 -0.43667561 1.3508787 1.0049324e-38
6.3024449 -0.43762681 1.3842837 1.1985432e-38
6.3473883 -0.43918583 1.4281892 1.0141519e-38
6.3404331 -0.4401406 1.4617941 1.0786889e-38
6.3504868 -0.4413017 1.4990541 8.4819979e-39
6.3528032 -0.44341922 1.5701274 9.4039542e-39
6.379354 -0.44480255 1.6116813 8.5741936e-39
6.3543334 -0.44553813 1.6414003 1.0418106e-38
5.9820552 -0.39612964 -1.5077277 8.2976067e-39
6.023921 -0.39889723 -1.4166654 9.0351717e-39
6.0318837 -0.39980862 -1.3847051 8.3898023e-39
6.0396791 -0.40071961 -1.3527035 1.0879084e-38
6.0417514 -0.40515426 -1.1847713 1.1432258e-38
6.0097504 -0.40766856 -1.0783225 8.4819979e-39
6.0159411 -0.40856212 -1.0464407 1.097128e-38
6.0219646 -0.40945503 -1.0145268 1.097128e-38
6.0278211 -0.41034725 -0.98258168 9.4039542e-39
6.0161958 -0.4111644 -0.94757068 8.3898023e-39
6.0390306 -0.41212961 -0.91860169 8.2976067e-39
6.0443845 -0.41301969 -0.88656849 1.2354214e-38
6.0495701 -0.41390899 -0.85450768 8.9429761e-39
6.0024672 -0.41454414 -0.81440246 1.0418106e-38
6.0467181 -0.41648257 -0.7556777 1.3368366e-38
6.0512185 -0.41736603 -0.72360629 1.3460562e-38
6.0729761 -0.41834313 -0.69382 1.0879084e-38
6.0771523 -0.4192273 -0.66161191 9.6805411e-39
6.0462613 -0.41991153 -0.62513095 9.4039542e-39
6.0500779 -0.42078882 -0.59306365 1.2815193e-38
6.0711961 -0.42176962 -0.56291962 9.8649324e-39
6.0397267 -0.42243341 -0.5270195 9.957128e-39
6.0954976 -0.42363366 -0.50026745 1.0233715e-38
6.0636625 -0.42428789 -0.46460712 1.2169823e-38
6.0316243 -0.42493111 -0.42929712 1.1432258e-38
6.0694447 -0.42603105 -0.40027902 1.2722997e-38
6.072083 -0.42690095 -0.3680931 1.4659105e-38
6.074553 -0.42776972 -0.33589378 1.0049324e-38
6.0417824 -0.42838857 -0.30126211 1.1893236e-38
6.0789862 -0.42950368 -0.27145839 1.3644953e-38
6.028307 -0.42998096 -0.23614535 1.1524454e-38
6.0476394 -0.43096927 -0.20511119 1.2815193e-38
6.1194849 -0.43236387 -0.17641188 1.1801041e-38
6.0858274 -0.43295678 -0.14246562 1.1340062e-38
6.06955 -0.43367773 -0.10953851 1.1247867e-38
6.1233706 -0.4349587 -0.079055801 1.1893236e-38
6.1067548 -0.4356769 -0.046116866 1.097128e-38
6.1251106 -0.43668178 -0.014122833 9.0351717e-39
6.0730009 -0.43709454 0.019221978 8.9429761e-39
6.073442 -0.43794522 0.051421281 1.1247867e-38
6.1791773 -0.43971691 0.08298184 1.097128e-38
6.161705 -0.44042304 0.11575089 1.0694693e-38
6.1792169 -0.44143999 0.14849053 1.0141519e-38
6.1614032 -0.44213822 0.18107495 1.1801041e-38
6.1609955 -0.44299346 0.21373497 1.1801041e-38
6.1604161 -0.44384709 0.24639243 1.3276171e-38
6.2123814 -0.44520378 0.28038213 1.1340062e-38
6.2114525 -0.44606137 0.31330773 1.2907388e-38
6.2279172 -0.44709027 0.34685722 1.1247867e-38
6.2266402 -0.44794688 0.37986332 1.2999584e-38
6.2251902 -0.44880176 0.4128623 1.2262019e-38
6.2060132 -0.44947472 0.44494843 1.0418106e-38
6.2042232 -0.45032373 0.47783864 1.392154e-38
6.20226 -0.45117089 0.51071906 1.1708845e-38
6.2176623 -0.45220351 0.54476929 1.0694693e-38
6.267942 -0.4536182 0.58153588 9.957128e-39
6.2654352 -0.45446929 0.6147486 1.1063476e-38
6.2277212 -0.45492989 0.64503634 1.1155671e-38
6.2598996 -0.4561657 0.68113244 1.0602497e-38
6.2568712 -0.45701101 0.71430171 8.6663892e-39
6.2361774 -0.45765302 0.74572426 8.8507805e-39
6.2502933 -0.45869565 0.78059071 1.1801041e-38
6.2642164 -0.45974091 0.81562209 1.1524454e-38
6.3477945 -0.46162173 0.85883743 1.1524454e-38
6.3089314 -0.46204966 0.88827181 1.2077628e-38
6.3048172 -0.46289197 0.92169523 9.3117586e-39
6.300528 -0.46373212 0.95509666 9.5883455e-39
6.3483133 -0.46522248 0.99558574 1.0510302e-38
6.3088293 -0.4656257 1.0242914 1.1616649e-38
6.3213935 -0.46668363 1.0602648 1.1524454e-38
6.3511314 -0.46796814 1.0990381 1.1247867e-38
6.3285503 -0.4685798 1.1299455 1.0233715e-38
6.3578663 -0.46987104 1.1691189 1.1063476e-38
6.3176146 -0.4702448 1.1969631 1.3276171e-38
6.3465185 -0.47154039 1.2364413 1.1708845e-38
6.3405805 -0.47237152 1.270057 1.244641e-38
6.3690362 -0.47367579 1.3100169 1.1985432e-38
6.3627124 -0.47450656 1.3437495 1.1155671e-38
6.3562121 -0.47533485 1.3774488 1.0418106e-38
6.3495355 -0.47616071 1.4111135 1.0694693e-38
6.3426819 -0.47698402 1.4447429 1.1432258e-38
6.3528485 -0.47805369 1.4819751 1.0141519e-38
6.3553805 -0.47994524 1.5530474 8.2976067e-39
6.3820562 -0.48127353 1.5945227 9.3117586e-39
6.3571262 -0.48183516 1.6243219 1.0141519e-38
6.3491564 -0.48264951 1.6579883 9.3117586e-39
6.0284266 -0.42784977 -1.3763517 8.6663892e-39
6.0361638 -0.42853808 -1.3443304 1.0141519e-38
6.0379305 -0.43197307 -1.1763713 1.0418106e-38
6.0402412 -0.43401721 -1.0766993 8.3898023e-39
6.0464087 -0.43469959 -1.04462 9.0351717e-39
6.0524077 -0.43538189 -1.012509 1.0325911e-38
6.0236311 -0.4360339 -0.97418159 8.3898023e-39
6.0400205 -0.43806791 -0.87812281 9.7727368e-39
6.0451479 -0.43874553 -0.8460474 1.0418106e-38
6.0327282 -0.43939829 -0.81130683 1.0786889e-38
6.0375061 -0.44007352 -0.77927053 1.0602497e-38
6.0421162 -0.44074851 -0.74720967 9.957128e-39
6.0465579 -0.44142324 -0.71512502 1.3552758e-38
6.0508313 -0.44209766 -0.68301761 1.0141519e-38
6.0723791 -0.44280601 -0.65307128 1.1708845e-38
6.0588746 -0.44344553 -0.61873776 1.097128e-38
6.0626435 -0.44411898 -0.58656716 1.244641e-38
6.0662432 -0.44479203 -0.5543772 1.1340062e-38
6.0871592 -0.4455066 -0.52398622 1.0510302e-38
6.0554447 -0.44609317 -0.48821712 1.0786889e-38
6.0585303 -0.4467631 -0.45606616 1.1616649e-38
6.0614471 -0.44743261 -0.42389947 9.957128e-39
6.0291595 -0.44800258 -0.38881609 9.957128e-39
6.0492501 -0.44871879 -0.35816327 1.3460562e-38
6.0691867 -0.44943827 -0.3273139 1.3368366e-38
6.0363517 -0.44999534 -0.29274184 1.2169823e-38
6.0735025 -0.45077285 -0.26286107 1.1340062e-38
6.0754075 -0.45143935 -0.23061857 1.4935692e-38
6.0595889 -0.45204431 -0.19746645 1.1524454e-38
6.0962706 -0.45283341 -0.16691397 1.1063476e-38
6.0801091 -0.45343527 -0.13383734 1.5120083e-38
6.0813379 -0.45409939 -0.10156195 1.2169823e-38
6.0648284 -0.45469433 -0.068748266 1.097128e-38
6.118434 -0.45556644 -0.037874717 1.1155671e-38
6.1015854 -0.45616004 -0.0050516455 9.8649324e-39
6.066988 -0.45667499 0.0278471 8.7585848e-39
6.0673699 -0.4573338 0.060051654 1.1432258e-38
6.1554732 -0.45838156 0.09189631 1.0879084e-38
6.155519 -0.4590483 0.12456323 1.0418106e-38
6.1553936 -0.45971426 0.15722996 1.1801041e-38
6.1726742 -0.46046299 0.19009936 1.1340062e-38
6.1897812 -0.46121466 0.22315079 1.0694693e-38
6.1891389 -0.46188191 0.25599557 1.2077628e-38
6.1707535 -0.46245915 0.28835681 1.3644953e-38
6.1873388 -0.46321386 0.32167286 1.0786889e-38
6.2037463 -0.46397138 0.35516724 1.0879084e-38
6.219974 -0.46473172 0.38883904 1.456691e-38
6.1833491 -0.46520501 0.42014453 1.2169823e-38
6.1992283 -0.46596533 0.45389253 1.0510302e-38
6.1973777 -0.4666281 0.48678371 1.3368366e-38
6.2304387 -0.46749419 0.52191114 1.097128e-38
6.2282314 -0.46815863 0.55496484 1.2815193e-38
6.208322 -0.4687162 0.58669972 1.0879084e-38
6.2232985 -0.46948445 0.62103534 1.0694693e-38
6.2556009 -0.47036481 0.65703082 1.1616649e-38
6.2351794 -0.47091734 0.68863249 1.1247867e-38
6.2320991 -0.4715783 0.72170877 8.8507805e-39
6.3512673 -0.47304332 0.7671243 9.957128e-39
6.242898 -0.4730137 0.78966737 1.2815193e-38
6.2392883 -0.47367308 0.8227827 1.2354214e-38
