# .PCD v0.7 - Point Cloud Data file format
VERSION 0.7
FIELDS x y z rgb
SIZE 4 4 4 4
TYPE F F F F
COUNT 1 1 1 1
WIDTH 1038
HEIGHT 1
VIEWPOINT 18.7389 2.31 5.77108 0.413217 0.048273 0.105657 0.903193
POINTS 1038
DATA ascii
7.0350451 0.23 -0.65800756 1.0879084e-38
6.9859052 0.23 -0.6164754 9.1273674e-39
6.954041 0.23 -0.57694715 1.1247867e-38
6.9570031 0.23 -0.540528 1.0510302e-38
7.0123672 0.23 -0.50795609 9.3117586e-39
7.032505 0.23 -0.47242808 1.1155671e-38
6.964745 0.23 -0.43118462 1.1893236e-38
7.0195909 0.23 -0.39774707 1.2077628e-38
7.0040598 0.23 -0.36006722 1.1432258e-38
7.0585618 0.23 -0.32587332 1.1985432e-38
7.0602078 0.23 -0.28891039 1.2722997e-38
7.0616603 0.23 -0.25193933 1.2722997e-38
7.0629196 0.23 -0.21496119 1.4290323e-38
7.0639849 0.23 -0.17797695 1.5949844e-38
7.0648565 0.23 -0.14098765 1.5581061e-38
7.1006866 0.23 -0.10454649 1.4013736e-38
7.1539044 0.23 -0.067918256 1.0233715e-38
7.1190429 0.23 -0.030275563 1.2077628e-38
7.1191406 0.23 0.0070000002 1.3460562e-38
7.136621 0.23 0.0443676 1.3552758e-38
7.1714816 0.23 0.082102329 1.3091779e-38
7.1885662 0.23 0.11992702 1.0879084e-38
7.1527276 0.23 0.15682828 1.2722997e-38
7.2045617 0.23 0.19565809 1.2169823e-38
7.2210445 0.23 0.23393047 1.3368366e-38
7.2373238 0.23 0.27238062 1.2077628e-38
7.1480212 0.23 0.30659086 1.2538606e-38
7.216589 0.23 0.34732571 1.1524454e-38
7.2147083 0.23 0.38510683 1.0786889e-38
7.2652764 0.23 0.42591321 1.097128e-38
7.2103534 0.23 0.46063697 9.8649324e-39
7.2078791 0.23 0.49838391 1.2262019e-38
7.325006 0.23 0.58349049 8.8507805e-39
7.1992717 0.23 0.61153972 8.5741936e-39
6.9142995 0.14605683 -1.2933704 1.0049324e-38
6.9210873 0.14628914 -1.2570931 9.4039542e-39
6.9276848 0.14652301 -1.2207808 8.2054111e-39
6.8994546 0.14704071 -1.1784236 8.7585848e-39
6.9348073 0.14761335 -1.0724682 9.8649324e-39
6.9056821 0.14813183 -1.0308026 9.4039542e-39
6.9110951 0.14837314 -0.99457401 9.4039542e-39
6.9511275 0.14834088 -0.96323752 1.1247867e-38
6.9561858 0.14858641 -0.92677206 1.1247867e-38
6.943624 0.14896975 -0.88800305 1.1524454e-38
6.9482889 0.14921767 -0.85157794 1.1524454e-38
6.9527626 0.14946705 -0.81512886 1.1432258e-38
6.9745088 0.1495835 -0.78066033 1.0418106e-38
6.9960842 0.14970268 -0.74598694 8.9429761e-39
6.9825215 0.15009092 -0.70746863 9.8649324e-39
7.021225 0.15008178 -0.67430019 1.0602497e-38
6.9897676 0.15060417 -0.63419706 1.0325911e-38
6.9755931 0.15099421 -0.59598821 9.7727368e-39
6.9612112 0.15138437 -0.55794585 9.5883455e-39
6.9816718 0.15151481 -0.52279544 1.0694693e-38
7.0194874 0.15151873 -0.48871702 1.0325911e-38
7.0746746 0.15139809 -0.45543614 1.1893236e-38
7.0068965 0.15217844 -0.41398373 1.097128e-38
7.0792766 0.15193668 -0.38121352 1.0141519e-38
7.0637312 0.15233469 -0.34318221 1.0786889e-38
7.0479827 0.15273274 -0.30532473 1.2630801e-38
6.9969063 0.15338133 -0.26620391 1.1801041e-38
7.0685802 0.15315527 -0.23201711 1.2999584e-38
7.0522394 0.15355544 -0.1944117 1.3368366e-38
7.0532708 0.15383241 -0.15742755 1.456691e-38
7.1068311 0.15374325 -0.12149198 1.2354214e-38
7.1426315 0.15378141 -0.084741287 1.1524454e-38
7.107934 0.15430813 -0.046951156 1.2169823e-38
7.1081929 0.15459259 -0.0096774511 1.2538606e-38
7.1961451 0.15427992 0.027681904 1.1524454e-38
7.1784344 0.15468958 0.065307438 1.2169823e-38
7.1781044 0.15498087 0.1029487 1.2077628e-38
7.1424265 0.15550861 0.14000161 1.1893236e-38
7.1944265 0.1554506 0.17860854 1.2538606e-38
7.2286458 0.15551434 0.21728612 1.3091779e-38
7.2275195 0.15581307 0.2551882 1.4105931e-38
7.1734986 0.15645708 0.29110062 1.097128e-38
7.2597947 0.15618657 0.33247799 1.1616649e-38
7.2756219 0.15637745 0.37138647 1.0049324e-38
7.1990528 0.1577435 0.48130849 9.4961499e-39
6.9069862 0.10771667 -1.7079476 8.3898023e-39
6.9314542 0.11050249 -1.4458293 8.2976067e-39
6.9390616 0.1108551 -1.4094337 8.9429761e-39
6.9330101 0.11263888 -1.2570926 8.8507805e-39
6.9287391 0.11353715 -1.1812495 9.5883455e-39
6.9349608 0.11390082 -1.144872 1.0141519e-38
6.9583411 0.11409329 -1.111288 9.219563e-39
6.9468331 0.11463387 -1.0720218 1.0694693e-38
6.9524827 0.11500325 -1.0355512 1.1340062e-38
6.9579411 0.11537451 -0.99905139 9.957128e-39
6.9632087 0.11574764 -0.96252358 1.1801041e-38
6.9682851 0.11612263 -0.92596877 1.1616649e-38
6.9383121 0.11683454 -0.88482958 1.1524454e-38
6.9778624 0.11687816 -0.85278183 1.1524454e-38
7.0172677 0.11692739 -0.82034475 8.4819979e-39
6.9692106 0.1178057 -0.7774936 1.1801041e-38
6.9907908 0.11802516 -0.74282354 8.6663892e-39
7.0121989 0.11824834 -0.70794952 9.4961499e-39
7.0159411 0.11863705 -0.67114174 1.0049324e-38
7.0719938 0.11854505 -0.6392318 9.6805411e-39
6.9528117 0.12005921 -0.59128088 9.0351717e-39
7.0785627 0.1193372 -0.5649749 9.5883455e-39
7.0815558 0.11973593 -0.52782172 1.0879084e-38
7.0843544 0.12013641 -0.49065334 1.2907388e-38
7.0694203 0.12069453 -0.45229056 1.1708845e-38
7.0718236 0.12109749 -0.41518685 1.1155671e-38
7.0740323 0.12150217 -0.37807107 1.0879084e-38
7.0584927 0.12206145 -0.34003958 1.1985432e-38
7.0427489 0.1226204 -0.3021819 1.2169823e-38
7.0619292 0.12287724 -0.26594076 1.1985432e-38
7.0809231 0.12313779 -0.22950773 1.2354214e-38
7.0470209 0.12384854 -0.19127323 1.4198127e-38
7.1007729 0.12381779 -0.15562505 1.1155671e-38
7.0840483 0.12438197 -0.11800852 1.1340062e-38
7.0847011 0.12479997 -0.080832951 1.0418106e-38
7.1730423 0.12449604 -0.044498507 1.0510302e-38
7.138154 0.12520979 -0.0067044692 1.1616649e-38
7.2261105 0.12492266 0.030829106 1.1801041e-38
7.2259817 0.12535544 0.068746381 1.3183975e-38
7.2256546 0.12578982 0.10666244 1.1063476e-38
7.2075539 0.12636526 0.1442849 1.2077628e-38
7.1892581 0.12694013 0.18172005 1.1893236e-38
7.2234821 0.12710245 0.22039297 1.456691e-38
7.3453398 0.12658933 0.26226526 9.957128e-39
7.2210407 0.12798531 0.29618818 1.0418106e-38
7.219523 0.12842904 0.33407515 1.0786889e-38
7.1826921 0.12914033 0.37026715 9.0351717e-39
6.9049873 0.10201702 -1.7047558 8.5741936e-39
6.929781 0.10583848 -1.4426811 9.6805411e-39
6.9374332 0.10634301 -1.4062968 9.4039542e-39
6.9176717 0.10767329 -1.3266306 1.0049324e-38
6.9074512 0.10833728 -1.2870116 1.0141519e-38
6.914289 0.10884503 -1.2507465 9.4961499e-39
6.9382348 0.10920035 -1.2175651 8.2976067e-39
6.9273934 0.10986567 -1.1781114 9.6805411e-39
6.9336605 0.11037851 -1.1417435 1.0049324e-38
6.9223919 0.11104333 -1.1024965 1.0786889e-38
6.9456229 0.11140918 -1.0689118 1.2630801e-38
6.9513178 0.11192698 -1.03245 1.3091779e-38
6.9568219 0.1124464 -0.99595875 1.1801041e-38
6.9621348 0.11296744 -0.9594394 1.3460562e-38
6.9672561 0.11349007 -0.92289257 1.4013736e-38
6.9721861 0.11401428 -0.88631958 1.1801041e-38
6.9420481 0.1148225 -0.84530264 1.1985432e-38
6.9814715 0.11506739 -0.81309867 1.0694693e-38
6.9683657 0.11573485 -0.77442616 1.1340062e-38
6.9725189 0.11626391 -0.73784947 1.2262019e-38
7.0114408 0.11652262 -0.70493883 1.0418106e-38
6.9802489 0.11732656 -0.66463333 1.1155671e-38
7.0713215 0.11719374 -0.6362986 9.4961499e-39
6.9697042 0.11852703 -0.58977145 9.1273674e-39
6.9728904 0.11906214 -0.55319035 1.1708845e-38
7.0810218 0.11882319 -0.52490598 1.1247867e-38
7.0838661 0.11936923 -0.48774302 1.3644953e-38
7.0865164 0.11991669 -0.45056567 1.1708845e-38
7.0889716 0.12046555 -0.41337496 9.8649324e-39
7.0561357 0.12126348 -0.37413546 1.1985432e-38
7.0406375 0.12193486 -0.33617854 1.3644953e-38
7.0249362 0.12260486 -0.29839522 1.2538606e-38
7.0617194 0.12291425 -0.26301411 1.4382518e-38
7.0631928 0.12346717 -0.22595587 1.2999584e-38
7.0644722 0.1240214 -0.18889049 1.4659105e-38
7.0304141 0.12480815 -0.15088573 1.1801041e-38
7.084022 0.12501949 -0.11511677 1.1616649e-38
7.1198716 0.12535323 -0.078509033 1.2999584e-38
7.1555319 0.1256938 -0.041530091 1.0510302e-38
7.1734214 0.12615122 -0.0040823957 1.1155671e-38
7.1208043 0.12704736 0.033576451 1.2630801e-38
7.2261891 0.12697084 0.07145296 1.2262019e-38
7.2259088 0.12754758 0.1093675 1.2354214e-38
7.2078543 0.12822999 0.14701046 1.2907388e-38
7.1544566 0.12911691 0.18374316 1.2907388e-38
7.2238774 0.12928492 0.22309491 1.5027888e-38
7.2228026 0.12986635 0.26099521 1.0879084e-38
7.1863971 0.13064657 0.29761422 1.2169823e-38
7.2200589 0.13103257 0.33677626 1.3368366e-38
7.2691841 0.13191949 0.41526446 8.4819979e-39
7.2144551 0.13279015 0.45038342 8.5741936e-39
7.3122549 0.13402401 0.5715729 8.6663892e-39
6.8883252 0.12168369 -1.4450608 9.5883455e-39
6.9303746 0.12204393 -1.4160187 1.0141519e-38
6.9033966 0.12279911 -1.3726215 9.4961499e-39
6.9106469 0.12335844 -1.3363438 1.0233715e-38
6.9177079 0.12391882 -1.3000284 1.1340062e-38
6.9245782 0.12448024 -1.2636766 1.0325911e-38
6.9139605 0.12513418 -1.2241621 9.8649324e-39
6.9204335 0.12569623 -1.187831 8.8507805e-39
6.9440455 0.12617059 -1.1544125 9.4961499e-39
6.9501529 0.12673602 -1.1179248 8.9429761e-39
6.921351 0.12747414 -1.0758771 1.1801041e-38
6.9270477 0.12803864 -1.0395094 1.3552758e-38
6.9151664 0.12868713 -1.0005299 1.1432258e-38
6.9552698 0.1290888 -0.96917832 1.2907388e-38
6.9604068 0.12965746 -0.93263453 1.3460562e-38
6.9305015 0.13038459 -0.89144623 1.4382518e-38
6.9526696 0.13087478 -0.85725093 1.1063476e-38
6.9572206 0.13144462 -0.82072228 1.1893236e-38
6.9092016 0.13223884 -0.77806509 1.0233715e-38
6.9657493 0.13258676 -0.74759603 1.0786889e-38
6.9697261 0.13315904 -0.71100044 9.7727368e-39
6.9735112 0.13373211 -0.67438453 1.0786889e-38
6.9596062 0.13437475 -0.63608027 1.1155671e-38
6.9454918 0.13501526 -0.59794098 9.4961499e-39
6.9662008 0.1355218 -0.56293923 9.7727368e-39
6.986733 0.13603194 -0.52773786 1.1616649e-38
7.0070882 0.13654567 -0.4923377 1.1524454e-38
6.9571185 0.13730936 -0.45189786 1.1063476e-38
6.9946322 0.13776429 -0.41758883 1.0879084e-38
7.0670729 0.13810827 -0.38495371 1.244641e-38
7.0515957 0.13875076 -0.34689778 1.2999584e-38
7.0359154 0.13939098 -0.30901536 1.2354214e-38
7.0551567 0.13992019 -0.27280957 1.3276171e-38
7.0742121 0.14045292 -0.23641159 1.2354214e-38
7.057941 0.14109205 -0.19868812 1.4105931e-38
7.0238991 0.1417788 -0.16066724 1.3552758e-38
7.0950975 0.14216909 -0.12530792 1.456691e-38
7.1309648 0.14266574 -0.088626049 1.2262019e-38
7.1139121 0.14330558 -0.050975546 1.4013736e-38
7.0966611 0.14394301 -0.013506873 1.2077628e-38
7.131948 0.14444995 0.023733757 1.3460562e-38
7.1670394 0.1449632 0.061342668 1.2999584e-38
7.2195096 0.14544302 0.099487804 1.1340062e-38
7.131166 0.14623843 0.13609509 1.3460562e-38
7.2183862 0.14665134 0.17530951 1.1708845e-38
7.2175264 0.14725612 0.21321492 1.3183975e-38
7.1637592 0.14796299 0.24950422 1.3552758e-38
7.1625118 0.14856414 0.28712261 1.3368366e-38
7.2664475 0.14897998 0.32905969 1.1985432e-38
7.1769857 0.14973807 0.36315006 9.8649324e-39
7.1751432 0.15034175 0.40083611 1.0233715e-38
7.2608528 0.15081307 0.44349548 1.0141519e-38
7.3031731 0.15319946 0.60000485 1.0602497e-38
6.8784575 0.16139659 -1.5343384 8.3898023e-39
6.8772783 0.16260822 -1.4582095 8.6663892e-39
6.8849769 0.16322273 -1.422025 8.9429761e-39
6.8752637 0.1638128 -1.3822774 9.0351717e-39
6.8998046 0.164451 -1.3495373 8.2976067e-39
6.8793225 0.16562057 -1.2703937 9.219563e-39
6.8687463 0.16620031 -1.2310392 8.3898023e-39
6.8925629 0.16684034 -1.1979734 9.8649324e-39
6.8815746 0.16741635 -1.1587317 1.1247867e-38
6.8703656 0.16798894 -1.1196388 1.1247867e-38
6.8762913 0.16859452 -1.0834949 8.8507805e-39
6.9514999 0.1693514 -1.0581528 1.0786889e-38
6.9223385 0.16988336 -1.0163507 1.0786889e-38
6.927722 0.17049074 -0.979936 1.1985432e-38
6.9329152 0.17109767 -0.94349372 1.097128e-38
6.9204965 0.17166013 -0.90468085 1.244641e-38
6.890429 0.17217356 -0.86377215 1.2354214e-38
6.8950143 0.17277449 -0.82752663 1.1063476e-38
6.8994102 0.17337492 -0.79125756 1.0325911e-38
6.9560146 0.17412496 -0.76090151 1.1616649e-38
6.9251075 0.17462572 -0.72053987 1.2538606e-38
6.89397 0.17511989 -0.68052363 1.0510302e-38
6.8801003 0.17566201 -0.64255804 9.957128e-39
6.9535437 0.17648095 -0.61281884 1.0325911e-38
6.9743257 0.17713854 -0.5777669 9.5883455e-39
6.9774122 0.17773943 -0.5410859 9.1273674e-39
6.875144 0.17797615 -0.49636593 1.0694693e-38
6.9654751 0.17887716 -0.46643251 1.1063476e-38
6.9679785 0.17947456 -0.42979938 1.097128e-38
6.952744 0.18000618 -0.39209181 9.5883455e-39
6.8671021 0.18026783 -0.35067672 1.0786889e-38
7.0621181 0.18160282 -0.3242183 1.097128e-38
7.0463152 0.18213524 -0.286295 1.2262019e-38
6.960053 0.18237974 -0.24577029 1.1708845e-38
6.961401 0.18297124 -0.20916846 1.2538606e-38
6.9976988 0.18370996 -0.17358047 9.4039542e-39
7.0513868 0.1845293 -0.13803713 1.1801041e-38
7.0873194 0.18527971 -0.10161097 1.2169823e-38
7.0703349 0.18579984 -0.064110607 1.0418106e-38
7.0883079 0.18647601 -0.027076 1.1063476e-38
7.1236644 0.18723562 0.010094097 1.0786889e-38
7.1060925 0.18775161 0.047507197 1.4013736e-38
7.1059027 0.18834807 0.084869698 1.2815193e-38
7.1055174 0.18894359 0.12223067 1.1524454e-38
7.1225114 0.18962543 0.15990712 1.3183975e-38
7.1041603 0.19013175 0.19694409 1.1801041e-38
7.138329 0.19090475 0.2352984 1.244641e-38
7.1547232 0.19159093 0.27342108 1.2169823e-38
7.1709146 0.19227898 0.31172109 1.2262019e-38
7.1517797 0.19277978 0.34864154 1.3460562e-38
7.1500125 0.19337262 0.38623923 1.2722997e-38
7.2007031 0.19425677 0.42671219 1.0141519e-38
7.1985264 0.19485177 0.46456492 1.0510302e-38
7.1961513 0.19544566 0.50240582 1.2169823e-38
7.1409755 0.19573309 0.53652203 1.1893236e-38
7.3134995 0.19735254 0.58735067 1.0049324e-38
7.2228785 0.19742978 0.61868811 9.4961499e-39
7.219696 0.19802189 0.65665436 8.4819979e-39
7.2338195 0.19872032 0.69620764 8.8507805e-39
7.3488503 0.20067377 0.78474462 9.8649324e-39
7.3447967 0.20127234 0.82336819 9.0351717e-39
6.8196058 0.20616898 -1.8399386 9.6805411e-39
6.8292713 0.20681991 -1.804039 9.1273674e-39
6.8047333 0.20713018 -1.7592113 1.0233715e-38
6.8139758 0.20777416 -1.7233905 9.6805411e-39
6.8402305 0.21078652 -1.5396847 8.9429761e-39
6.8483229 0.21141736 -1.5036808 8.9429761e-39
6.844336 0.21354721 -1.352351 1.0325911e-38
6.8514476 0.21416487 -1.316328 1.0141519e-38
6.8651052 0.21539398 -1.2441728 1.1801041e-38
6.8543468 0.21581247 -1.2049514 1.097128e-38
6.8606863 0.21642026 -1.168878 1.1708845e-38
6.8495026 0.21682996 -1.129862 1.2999584e-38
6.8901486 0.21782693 -1.0994525 1.1616649e-38
6.878572 0.21823081 -1.0604649 1.3552758e-38
6.8841543 0.21883002 -1.0242664 1.3091779e-38
6.8895478 0.21942703 -0.98803914 1.1985432e-38
6.8947515 0.22002183 -0.95178401 1.0510302e-38
6.9171824 0.2208194 -0.91786587 1.2262019e-38
6.86973 0.22079185 -0.87464952 1.2815193e-38
6.8917813 0.22158493 -0.84068084 1.3091779e-38
6.8962131 0.22216928 -0.804416 1.0602497e-38
6.8829923 0.22254048 -0.76612991 1.4474714e-38
6.8870339 0.2231188 -0.72991192 1.456691e-38
6.8908858 0.22369482 -0.69367331 1.3276171e-38
6.9120402 0.22448376 -0.65913892 1.1432258e-38
6.8805199 0.22462319 -0.61950564 1.1708845e-38
6.8837934 0.22519076 -0.5833025 1.1893236e-38
6.8693614 0.22553641 -0.54563373 1.097128e-38
6.8722486 0.22609781 -0.50948995 1.2262019e-38
6.8749466 0.22665682 -0.47333151 1.2815193e-38
6.8774552 0.22721344 -0.43715942 1.244641e-38
6.879775 0.22776765 -0.40097466 1.2630801e-38
6.9170022 0.22877264 -0.36675805 1.0879084e-38
6.9540596 0.22978076 -0.33216318 1.1155671e-38
6.8855958 0.22941558 -0.2923542 1.1708845e-38
6.8871565 0.22995995 -0.25612864 1.4105931e-38
7.011487 0.23212692 -0.22425081 1.2815193e-38
7.0302582 0.23290941 -0.18789719 1.2630801e-38
7.0312696 0.23345716 -0.15091549 1.0418106e-38
7.0496612 0.23423856 -0.11427522 1.0510302e-38
7.0678625 0.23502007 -0.077447109 1.1524454e-38
7.0507193 0.23532376 -0.040107731 1.1524454e-38
7.0509572 0.2358624 -0.0030207876 1.2077628e-38
7.0685773 0.23664001 0.034088779 1.0510302e-38
7.0508504 0.23693173 0.071154378 1.1247867e-38
7.0856562 0.23795085 0.10865245 1.3276171e-38
7.1026883 0.23872696 0.14621834 1.3737149e-38
7.0668058 0.23876239 0.18279512 1.3737149e-38
7.1537247 0.24052694 0.22237323 1.3276171e-38
7.1174531 0.24055555 0.25884831 1.1893236e-38
7.0809965 0.24057624 0.29494905 1.3276171e-38
7.0794797 0.24109302 0.33219028 1.4659105e-38
7.1479912 0.2426201 0.37282225 1.2999584e-38
7.1636162 0.24339084 0.41135496 1.097128e-38
7.1439424 0.24364968 0.44799373 1.1893236e-38
7.124083 0.24390315 0.48443717 1.3368366e-38
7.1566415 0.24492607 0.5243361 1.1801041e-38
7.1188674 0.24491301 0.55935234 1.0049324e-38
7.1159654 0.24541359 0.59678853 1.244641e-38
7.1128674 0.24591126 0.63420904 1.0786889e-38
7.2496104 0.24851136 0.68428653 1.2538606e-38
7.2460523 0.2490128 0.72240567 1.244641e-38
7.2422948 0.24951121 0.76050568 1.0602497e-38
7.238338 0.25000662 0.79858553 1.1985432e-38
7.2427173 0.25174478 0.91482705 8.2054111e-39
7.2379518 0.25222906 0.95290715 8.2054111e-39
6.7641377 0.42167702 -1.8581938 8.4819979e-39
6.7739058 0.42241904 -1.8225145 9.5883455e-39
6.794415 0.42519137 -1.5992626 8.8507805e-39
6.8028283 0.42587224 -1.5634278 8.3898023e-39
6.8110538 0.42654485 -1.5275493 8.2054111e-39
6.8288503 0.42948335 -1.2687347 1.0325911e-38
6.8355341 0.43008602 -1.2327234 8.9429761e-39
6.8420296 0.43068027 -1.1966772 1.0602497e-38
6.8656406 0.43203872 -1.163588 8.9429761e-39
6.854454 0.43184358 -1.1244851 1.0049324e-38
6.8603826 0.43241253 -1.0883412 1.0049324e-38
6.8661222 0.43297306 -1.0521666 1.0786889e-38
6.8543091 0.43274683 -1.0133351 1.1801041e-38
6.8422794 0.43250936 -0.97465706 1.2815193e-38
6.847425 0.43304172 -0.93857861 1.1893236e-38
6.8697839 0.4343479 -0.90482754 1.1616649e-38
6.8571491 0.43408096 -0.86634314 1.2077628e-38
6.8617277 0.43458784 -0.8301881 1.3368366e-38
6.8835535 0.43587232 -0.79608941 1.2354214e-38
6.870317 0.43557602 -0.75780821 1.3737149e-38
6.8743277 0.43605727 -0.72158545 1.0602497e-38
6.8606811 0.4357402 -0.68353647 1.1063476e-38
6.8643031 0.43620315 -0.64736497 1.2815193e-38
6.8502512 0.43586543 -0.60955262 1.0879084e-38
6.8534865 0.43631014 -0.57343674 1.2538606e-38
6.8390317 0.43595189 -0.53586531 1.1893236e-38
6.8593903 0.43717378 -0.50115633 1.3644953e-38
6.8445435 0.43679622 -0.46373832 1.3460562e-38
6.8470168 0.43720555 -0.42765406 1.1985432e-38
6.8668275 0.4384048 -0.39262903 1.1985432e-38
6.8689284 0.43879792 -0.35642877 1.2077628e-38
6.8708396 0.43918237 -0.32021797 1.3644953e-38
6.872561 0.43955821 -0.28399754 1.1616649e-38
6.9618216 0.44393745 -0.25128913 1.4013736e-38
6.9280834 0.44269386 -0.21336836 1.1616649e-38
6.9467974 0.44385055 -0.17736931 1.0602497e-38
6.877553 0.44097483 -0.13903981 8.7585848e-39
7.0373354 0.44921389 -0.031638291 8.8507805e-39
7.0375457 0.44952717 0.0054513728 9.0351717e-39
7.0551205 0.45064062 0.042573709 9.219563e-39
7.0549417 0.45093676 0.079755746 1.0510302e-38
7.0545688 0.45122397 0.11693641 1.0510302e-38
7.0891137 0.45312455 0.15473084 1.1708845e-38
7.0532384 0.45177138 0.19128957 1.097128e-38
7.034729 0.45121908 0.2279679 1.1063476e-38
7.0686803 0.45309597 0.2662091 1.4290323e-38
7.0673318 0.4533388 0.30345958 1.3091779e-38
7.0833302 0.45438689 0.34147054 1.4474714e-38
7.0640492 0.45379731 0.37793699 1.3368366e-38
7.0621166 0.45401302 0.41516191 1.5304475e-38
7.0775166 0.4550356 0.45342001 1.2999584e-38
7.092711 0.45605007 0.4918502 1.3368366e-38
7.0901818 0.45623952 0.52922404 1.2815193e-38
7.1049666 0.45723718 0.56790334 1.0879084e-38
7.137044 0.45904428 0.60816246 1.2907388e-38
7.1339054 0.45920756 0.64576721 1.244641e-38
7.148057 0.46018016 0.68494958 1.1524454e-38
7.1445165 0.46032539 0.72261113 1.0694693e-38
7.2281237 0.46455738 0.76914179 1.1155671e-38
7.1892228 0.4630467 0.80348384 9.7727368e-39
7.167613 0.46234533 0.83939916 1.0879084e-38
7.1632643 0.46245417 0.87716144 1.0325911e-38
7.3107209 0.47002861 0.97272825 9.4961499e-39
7.3056726 0.47011134 1.0112391 1.0325911e-38
7.2134647 0.46608019 1.0376369 8.3898023e-39
6.7769661 0.4525373 -1.7781848 8.5741936e-39
6.8583341 0.46254721 -1.1549022 1.0694693e-38
6.8471026 0.46233043 -1.1158123 1.0049324e-38
6.841331 0.46273056 -1.0407827 9.957128e-39
6.8294601 0.4624773 -1.0020559 9.4961499e-39
6.8347478 0.4630864 -0.96599936 1.1893236e-38
6.8572354 0.46456248 -0.93234104 1.1708845e-38
6.8621593 0.46515408 -0.89613962 9.5883455e-39
6.8668928 0.46573612 -0.85991293 1.1801041e-38
6.8714371 0.46630859 -0.82366168 1.1708845e-38
6.875792 0.46687147 -0.78738713 8.5741936e-39
6.8625121 0.46654108 -0.74912119 1.0602497e-38
6.8490219 0.46619833 -0.71101683 8.5741936e-39
6.8563647 0.46725139 -0.63868582 1.2538606e-38
6.8597527 0.46776351 -0.60249233 8.5741936e-39
6.8454609 0.46737576 -0.56477052 1.2538606e-38
6.8484616 0.46786734 -0.52863497 1.1063476e-38
6.8512745 0.46834934 -0.49248415 1.097128e-38
6.8538976 0.46882167 -0.45631897 1.2630801e-38
6.8388138 0.46838924 -0.41899651 1.1708845e-38
6.8761005 0.47063363 -0.38500166 1.2262019e-38
6.8606324 0.47018069 -0.34774736 1.3737149e-38
6.8624988 0.47061431 -0.31153473 1.5212279e-38
6.8817134 0.47193784 -0.2760891 1.1616649e-38
6.953371 0.47595558 -0.24250439 1.1063476e-38
6.9195962 0.47456193 -0.2046219 1.0602497e-38
6.9382606 0.47586232 -0.16860218 8.5741936e-39
6.8689885 0.4726367 -0.13035084 8.7585848e-39
6.958024 0.47790495 -0.058961444 8.5741936e-39
6.9936209 0.48077208 0.051305227 8.9429761e-39
6.9933982 0.48110417 0.08821059 9.8649324e-39
6.9929824 0.48142624 0.1251144 1.0141519e-38
7.0625796 0.48538053 0.16332673 9.7727368e-39
7.0266714 0.48386303 0.19975276 9.5883455e-39
7.025672 0.48415652 0.23682974 1.097128e-38
7.0771108 0.48717818 0.27571243 1.2722997e-38
7.0757132 0.48745358 0.31305301 1.1247867e-38
7.0565839 0.48680472 0.34959811 1.3644953e-38
7.0548 0.48705912 0.38683027 1.2722997e-38
7.0528221 0.48730341 0.42405266 1.1801041e-38
7.0506496 0.4875375 0.46126419 1.2354214e-38
7.0657983 0.48867786 0.49961925 1.1340062e-38
7.08074 0.4898091 0.53814512 1.3183975e-38
7.0779705 0.49001369 0.5755018 1.0049324e-38
7.1274924 0.49296185 0.61713541 1.1340062e-38
7.1243091 0.49314731 0.65473628 1.1985432e-38
7.1209288 0.49332243 0.69232005 1.1247867e-38
7.0998812 0.49256802 0.72818011 1.0418106e-38
7.1485028 0.49548092 0.77102667 9.0351717e-39
7.1096096 0.49378586 0.80495852 1.0325911e-38
7.1577702 0.49668047 0.84840417 1.0786889e-38
7.1359453 0.49588424 0.88408959 1.0233715e-38
7.1662059 0.4978396 0.92605776 9.0351717e-39
7.161406 0.49794337 0.96385819 1.0233715e-38
7.2821636 0.50762868 1.333516 8.3898023e-39
6.7746711 0.45551595 -1.710077 8.2054111e-39
6.7836666 0.45645735 -1.6742948 9.4961499e-39
6.7993846 0.46011439 -1.4512142 9.957128e-39
6.8288226 0.46353072 -1.3073434 8.2054111e-39
6.8489223 0.46598941 -1.199051 8.5741936e-39
6.8613777 0.46757892 -1.1266856 1.0325911e-38
6.8153405 0.4656156 -1.0820081 8.8507805e-39
6.8557339 0.46821219 -1.0514684 1.0694693e-38
6.8439293 0.46805185 -1.0126342 1.0694693e-38
6.8319077 0.46787772 -0.97395331 1.0879084e-38
6.854435 0.46953374 -0.94032997 1.2077628e-38
6.8594041 0.47025964 -0.90413737 1.2815193e-38
6.8815908 0.47190106 -0.87018818 1.1340062e-38
6.8687749 0.47168127 -0.83167613 1.1432258e-38
6.8731761 0.47237697 -0.79540938 1.1801041e-38
6.8599477 0.4721317 -0.75712484 1.2262019e-38
6.8639593 0.47280547 -0.72090524 9.0351717e-39
6.8677812 0.47346908 -0.68466491 1.1247867e-38
6.8539448 0.4731867 -0.64668435 1.2630801e-38
6.8573785 0.47382838 -0.6104973 9.4961499e-39
6.878109 0.47539899 -0.57582986 1.3829344e-38
6.8636789 0.47508129 -0.53807122 1.3829344e-38
6.8665452 0.47569251 -0.50183421 1.5120083e-38
6.8692212 0.47629347 -0.46558255 1.2630801e-38
6.8541946 0.47593904 -0.42814696 1.4105931e-38
6.8740053 0.47746474 -0.3930392 1.4105931e-38
6.8761129 0.47803503 -0.35674953 1.2169823e-38
6.8780308 0.47859505 -0.32044917 1.4474714e-38
6.8972926 0.48009568 -0.28494182 1.2722997e-38
6.8988347 0.48063648 -0.24853112 1.1985432e-38
6.9528098 0.48402783 -0.2139691 1.1155671e-38
6.95398 0.48455191 -0.17726804 9.3117586e-39
6.8847713 0.48124054 -0.13882191 9.219563e-39
6.8855491 0.4817386 -0.10247833 1.0049324e-38
6.9742913 0.48750338 -0.030574918 8.9429761e-39
6.9920535 0.48893738 0.006170202 9.4039542e-39
6.9920716 0.48940083 0.043074839 9.0351717e-39
7.0621023 0.49370736 0.080448464 9.8649324e-39
6.991529 0.49029604 0.11688221 1.1616649e-38
7.0260668 0.49265891 0.15438572 9.5883455e-39
7.0604033 0.49501535 0.19225396 1.0602497e-38
7.006813 0.49252692 0.22805889 1.2262019e-38
7.0758381 0.49680236 0.2673482 1.1985432e-38
7.056951 0.49622676 0.30402017 1.1708845e-38
7.0554109 0.49660906 0.34126204 1.3552758e-38
7.0712061 0.49795201 0.3793487 1.1155671e-38
7.0517459 0.49734125 0.41571942 1.3552758e-38
7.0671425 0.49866444 0.45396993 1.4659105e-38
7.0648179 0.49900439 0.49126378 1.244641e-38
7.1148243 0.50225818 0.53220713 1.2815193e-38
7.0945883 0.50160313 0.5684377 1.2169823e-38
7.1091595 0.5028885 0.60727853 1.1340062e-38
7.1060324 0.50318718 0.64479113 1.1524454e-38
7.1201892 0.50445282 0.68387455 1.3276171e-38
7.1341319 0.50570887 0.72312349 1.1616649e-38
7.1303988 0.50597596 0.76076585 1.1616649e-38
7.1090174 0.50525224 0.79652578 1.2722997e-38
7.1397848 0.50745755 0.83794349 1.0694693e-38
7.1180201 0.50671113 0.87356907 1.2262019e-38
7.1831813 0.5108602 0.91967219 1.1340062e-38
7.1610112 0.51009214 0.95534176 1.1801041e-38
7.156064 0.51029444 0.9931227 8.4819979e-39
7.150919 0.51048553 1.0308772 9.4961499e-39
7.282228 0.52136564 1.3248043 8.7585848e-39
7.2753463 0.52146983 1.3632171 9.219563e-39
6.7730832 0.45447719 -1.7860218 8.8507805e-39
6.7746711 0.45551595 -1.710077 9.0351717e-39
6.8217454 0.4626914 -1.3433686 8.9429761e-39
6.8288226 0.46353072 -1.3073434 9.0351717e-39
6.8184633 0.46345586 -1.2680126 9.3117586e-39
6.8316412 0.46508098 -1.1959634 9.4961499e-39
6.8379478 0.46587873 -1.1598877 9.6805411e-39
6.8613777 0.46757892 -1.1266856 9.7727368e-39
6.8499947 0.46744433 -1.0876392 1.2538606e-38
6.8383923 0.46729589 -1.0487437 1.2169823e-38
6.8612843 0.46897003 -1.0152678 1.2077628e-38
6.8492765 0.4687978 -0.97649592 1.2999584e-38
6.854435 0.46953374 -0.94032997 1.2262019e-38
6.8767991 0.47118342 -0.90649778 1.1616649e-38
6.8641844 0.47097549 -0.86791909 1.1893236e-38
6.8687749 0.47168127 -0.83167613 1.1708845e-38
6.8557472 0.47144789 -0.79332292 1.1801041e-38
6.8599477 0.4721317 -0.75712484 9.4961499e-39
6.8639593 0.47280547 -0.72090524 9.4039542e-39
6.8677812 0.47346908 -0.68466491 9.957128e-39
6.8539448 0.4731867 -0.64668435 9.4039542e-39
6.874856 0.47476587 -0.61212623 1.2538606e-38
6.878109 0.47539899 -0.57582986 1.1340062e-38
6.8636789 0.47508129 -0.53807122 1.4843496e-38
6.8840456 0.47663468 -0.50318807 1.1247867e-38
6.8692212 0.47629347 -0.46558255 1.3183975e-38
6.8717084 0.47688422 -0.42931721 1.4382518e-38
6.8740053 0.47746474 -0.3930392 1.3276171e-38
6.8761129 0.47803503 -0.35674953 1.4013736e-38
6.9130902 0.48049414 -0.32223845 1.2722997e-38
6.8972926 0.48009568 -0.28494182 1.1616649e-38
6.9514484 0.48349339 -0.25066343 1.1893236e-38
6.8826447 0.48021328 -0.21149389 9.8649324e-39
6.9013472 0.48168704 -0.17568758 9.6805411e-39
6.9738879 0.48702002 -0.067385033 9.957128e-39
6.9918423 0.48846334 -0.030733699 9.4961499e-39
7.0096049 0.48989847 0.0061034579 1.1247867e-38
6.9918971 0.48985374 0.079979166 9.5883455e-39
7.0266299 0.49222505 0.11730091 1.0879084e-38
7.0260668 0.49265891 0.15438572 1.3368366e-38
7.0077615 0.49211544 0.19107381 1.1524454e-38
7.076992 0.49639755 0.23000048 1.1801041e-38
7.0582962 0.49583369 0.26677081 1.1801041e-38
7.0394125 0.49525714 0.30335078 1.1247867e-38
7.0378761 0.49563846 0.34050071 1.1801041e-38
7.0712061 0.49795201 0.3793487 1.2907388e-38
7.069272 0.49831367 0.4166646 1.3829344e-38
7.0671425 0.49866444 0.45396993 1.2262019e-38
7.0998478 0.50095254 0.49352151 1.2077628e-38
7.0973158 0.50128329 0.53098643 1.244641e-38
7.1295919 0.50355446 0.57106274 1.2169823e-38
7.0916648 0.50191206 0.60587424 1.2630801e-38
7.1235199 0.50416434 0.64628708 1.3552758e-38
7.1376677 0.5054307 0.68546224 1.2169823e-38
7.1341319 0.50570887 0.72312349 1.244641e-38
7.1303988 0.50597596 0.76076585 1.1616649e-38
7.1439209 0.50721192 0.80025065 1.0325911e-38
7.1223431 0.50647712 0.83598965 1.1801041e-38
7.1703134 0.5096541 0.87970501 1.0233715e-38
7.2354422 0.51380479 0.92608243 9.219563e-39
7.1784201 0.51107419 0.95756978 8.3898023e-39
7.1734605 0.51127696 0.99544197 1.0049324e-38
7.2150621 0.51459926 1.078611 8.5741936e-39
7.2323465 0.51704592 1.1982594 8.4819979e-39
7.3127027 0.52210772 1.250739 9.8649324e-39
7.2889085 0.52124995 1.2863561 9.0351717e-39
6.7676687 0.43873572 -1.757983 9.3117586e-39
6.7862773 0.44306374 -1.6103609 9.4039542e-39
6.8340292 0.4506155 -1.3942666 8.9429761e-39
6.8312111 0.45210242 -1.3185443 9.4039542e-39
6.8275671 0.45353571 -1.2430354 8.2054111e-39
6.823101 0.4549154 -1.1677489 1.1247867e-38
6.8119078 0.4551039 -1.1287342 1.0694693e-38
6.8004956 0.45527613 -1.0898693 1.1247867e-38
6.8582149 0.45930547 -1.062091 1.1524454e-38
6.8464255 0.45945665 -1.0231655 1.2262019e-38
6.8517833 0.46056554 -0.98694503 1.3460562e-38
6.8569522 0.46166381 -0.95069671 1.2722997e-38
6.8445411 0.46177202 -0.91205174 1.2722997e-38
6.849318 0.46284622 -0.87584192 1.0233715e-38
6.8539062 0.46390978 -0.8396073 1.0325911e-38
6.8757291 0.46595004 -0.80544484 1.1708845e-38
6.8625131 0.46600464 -0.76706767 1.2722997e-38
6.8665318 0.46703592 -0.73076457 1.1708845e-38
6.8529058 0.46706116 -0.69261903 1.0233715e-38
6.8425031 0.46806428 -0.61845744 1.0325911e-38
6.8632269 0.47005001 -0.58380723 1.4013736e-38
6.8662872 0.47102451 -0.54750174 1.2354214e-38
6.8516622 0.47098044 -0.50981688 1.4198127e-38
6.8368335 0.47092062 -0.47230086 1.4751301e-38
6.8568211 0.47287005 -0.43731445 1.4198127e-38
6.8766313 0.47481325 -0.40213165 1.4659105e-38
6.8787417 0.47573295 -0.36575711 1.4105931e-38
6.8631368 0.47562215 -0.32846734 1.4474714e-38
6.8999224 0.47856089 -0.29378903 1.3644953e-38
6.8663988 0.47740176 -0.25585201 1.1432258e-38
6.8677449 0.47827491 -0.21953212 1.2169823e-38
6.9039807 0.48119363 -0.18427868 1.0510302e-38
6.8874097 0.48101839 -0.14731759 1.0418106e-38
6.958365 0.48599073 -0.11229888 9.3117586e-39
6.9765043 0.48786452 -0.075758383 1.0694693e-38
6.9769068 0.48869431 -0.038862381 9.7727368e-39
7.0297585 0.4926292 -0.0021943925 9.6805411e-39
6.9946804 0.49136052 0.034949586 1.244641e-38
7.0120502 0.49320084 0.072047576 1.2077628e-38
6.9941335 0.49294406 0.10892952 1.0418106e-38
7.0637479 0.49790537 0.1470824 1.1708845e-38
7.0278983 0.49657875 0.1836675 1.2999584e-38
7.0971041 0.50153577 0.22273292 1.1893236e-38
7.0433311 0.49912971 0.25855708 1.2722997e-38
7.0595183 0.50091749 0.29646057 1.456691e-38
7.0755033 0.50269717 0.33454064 1.4843496e-38
7.0737591 0.50341094 0.37195292 1.4105931e-38
7.0192547 0.50093472 0.40655047 1.0879084e-38
7.0696831 0.504803 0.44674826 1.456691e-38
7.1023722 0.5076068 0.48636696 1.4105931e-38
7.0823288 0.5072121 0.52270848 1.244641e-38
7.0796008 0.50786829 0.56015521 1.2630801e-38
7.1116562 0.51064765 0.60037583 1.4013736e-38
7.1260037 0.51235217 0.63946176 1.2815193e-38
7.1051893 0.51190645 0.67555922 1.1801041e-38
7.1191273 0.51358992 0.71479398 1.2169823e-38
7.1153932 0.51419067 0.75243247 1.3276171e-38
7.1114635 0.51477939 0.79005104 1.3276171e-38
7.1596475 0.51858521 0.83348 1.1524454e-38
7.1727195 0.52023154 0.87336528 1.0694693e-38
7.1855712 0.52186835 0.91341031 9.0351717e-39
7.1633935 0.52133453 0.9491778 1.1708845e-38
7.2280025 0.52619457 0.99628323 9.4961499e-39
7.1706557 0.52347142 1.0272897 8.9429761e-39
7.2173882 0.52723372 1.0726706 8.4819979e-39
7.2233152 0.52930963 1.1516167 9.6805411e-39
7.2172961 0.52978677 1.1897985 8.8507805e-39
7.2976294 0.53569543 1.2422245 1.0694693e-38
7.2257514 0.53375363 1.3484511 8.4819979e-39
6.8222208 0.43781987 -1.3354307 8.4819979e-39
6.8425951 0.44192919 -1.2269585 8.2054111e-39
6.826632 0.44403875 -1.1124425 1.0510302e-38
6.8151155 0.44439343 -1.0735232 9.7727368e-39
6.8207264 0.44569099 -1.0374405 1.0418106e-38
6.8435082 0.4479413 -1.0039231 1.1432258e-38
6.8487549 0.44922119 -0.96769184 8.9429761e-39
6.8538117 0.4504905 -0.93143344 1.0602497e-38
6.8586793 0.45174927 -0.89514869 1.0141519e-38
6.8633571 0.45299739 -0.85883856 1.0418106e-38
6.8678446 0.4542349 -0.82250416 1.0602497e-38
6.8547111 0.45447963 -0.78409922 8.2976067e-39
6.8762498 0.45667779 -0.74976629 8.6663892e-39
6.8627157 0.45689499 -0.71150059 8.8507805e-39
6.8489728 0.45709544 -0.67339754 1.1063476e-38
6.8524909 0.45827323 -0.6371395 1.0325911e-38
6.8732972 0.46043727 -0.60245287 1.1247867e-38
6.8589592 0.46059644 -0.56456977 1.2907388e-38
6.8794007 0.46274459 -0.52966624 1.1893236e-38
6.8646674 0.4628762 -0.49193496 1.2354214e-38
6.8672366 0.46399969 -0.45559564 1.2538606e-38
6.8521032 0.4641009 -0.4181121 1.456691e-38
6.8718052 0.46621388 -0.38287821 1.244641e-38
6.8738041 0.46730447 -0.34650207 1.2630801e-38
6.9457231 0.47246253 -0.31353724 1.1801041e-38
6.8596988 0.4684301 -0.27295643 1.1432258e-38
6.8786588 0.47050983 -0.23731592 9.1273674e-39
6.8623581 0.47052845 -0.20032503 9.6805411e-39
6.8818007 0.47361505 -0.12806417 9.7727368e-39
6.9706736 0.48081884 -0.056264978 8.7585848e-39
6.9885097 0.48286197 -0.01949189 1.0786889e-38
6.988606 0.48385569 0.017494213 1.0049324e-38
7.023603 0.48692861 0.054609254 9.6805411e-39
7.0233107 0.48790413 0.091778964 1.0879084e-38
7.0228248 0.48886806 0.12894695 1.1247867e-38
7.0572309 0.49192536 0.16679281 1.0325911e-38
7.0037284 0.48970616 0.20284133 1.0049324e-38
7.0728154 0.49486133 0.24200311 1.2722997e-38
7.0715427 0.49578539 0.27942985 1.1893236e-38
7.0525422 0.49563596 0.31614152 1.2169823e-38
7.0684104 0.49759802 0.35426167 1.0510302e-38
7.0840735 0.49955255 0.39255667 1.2999584e-38
7.0995312 0.50149953 0.43102551 1.2722997e-38
7.0797572 0.50129819 0.46751556 1.2077628e-38
7.0948119 0.50322545 0.506145 1.2538606e-38
7.0746574 0.50299591 0.54242635 1.1155671e-38
7.1068001 0.50597978 0.58256328 1.2815193e-38
7.1037459 0.50680256 0.62016636 1.3091779e-38
7.1179729 0.50869375 0.65928763 1.1155671e-38
7.1145167 0.50949425 0.69694889 1.1247867e-38
7.1457853 0.51245129 0.73802722 9.7727368e-39
7.1070156 0.51105863 0.77221543 1.0233715e-38
7.1901751 0.51726305 0.81932223 9.1273674e-39
7.1858811 0.51802373 0.85736114 8.9429761e-39
7.1639686 0.51768029 0.89329386 1.0418106e-38
7.2115149 0.5216949 0.9377197 8.5741936e-39
7.2188735 0.52423298 1.0163515 8.3898023e-39
7.2369914 0.52850914 1.1360923 8.6663892e-39
7.300364 0.53359175 1.185261 9.957128e-39
7.2877431 0.53490323 1.2624577 8.5741936e-39
6.840601 0.3721655 -1.3158871 9.219563e-39
6.8607426 0.37694633 -1.2071179 8.4819979e-39
6.8675952 0.38231018 -1.0588856 1.0602497e-38
6.8731532 0.38384271 -1.0225244 8.3898023e-39
6.8663173 0.38598967 -0.94725436 1.0602497e-38
6.8712916 0.38748932 -0.91090029 1.0510302e-38
6.8760762 0.38897923 -0.8745203 1.0233715e-38
6.8806701 0.39045927 -0.83811539 1.0694693e-38
6.8850737 0.39192954 -0.80168658 9.7727368e-39
6.8892865 0.39338985 -0.76523477 1.0325911e-38
6.8933082 0.39484027 -0.72876108 8.3898023e-39
6.8833108 0.39679268 -0.65402067 9.0351717e-39
6.8692737 0.39728746 -0.61593914 8.6663892e-39
6.8725157 0.3986907 -0.57957089 1.0141519e-38
6.875567 0.40008387 -0.54318583 9.4039542e-39
6.8784275 0.40146691 -0.5067848 9.5883455e-39
6.8635907 0.40190378 -0.46909612 9.5883455e-39
6.9010911 0.40514198 -0.43512049 1.1432258e-38
6.8683481 0.40461215 -0.39640754 1.1985432e-38
6.9054894 0.40784347 -0.36204001 1.1432258e-38
6.872344 0.40727958 -0.32367161 1.1340062e-38
6.8740563 0.40859783 -0.28728843 1.0510302e-38
6.8580418 0.40894952 -0.25017452 1.1893236e-38
6.9119921 0.4131223 -0.2157564 1.1432258e-38
6.9833136 0.41826692 -0.18131788 8.6663892e-39
6.8797636 0.41503322 -0.10525983 1.1340062e-38
6.8803339 0.41628891 -0.068838574 8.6663892e-39
7.0213079 0.42659739 0.003386134 1.0141519e-38
7.0386605 0.43006846 0.077817149 9.1273674e-39
7.0558181 0.43228614 0.11526829 1.1247867e-38
7.0552311 0.43350807 0.1526114 1.2262019e-38
7.0018101 0.43173757 0.18880609 1.097128e-38
7.0534692 0.43591875 0.22728695 1.0510302e-38
7.0698366 0.43810716 0.26518297 1.097128e-38
7.0860019 0.44029024 0.30325654 1.2538606e-38
7.0668964 0.44045696 0.34000766 1.1247867e-38
7.0651331 0.44161505 0.37740797 1.5027888e-38
7.0631742 0.4427619 0.41479889 1.1985432e-38
7.0960574 0.44592527 0.45422959 1.2354214e-38
7.0586696 0.44502172 0.48954847 9.957128e-39
7.0911374 0.4481734 0.5293225 1.1155671e-38
7.0883832 0.44928032 0.56684911 1.0510302e-38
7.1204185 0.45242539 0.60714549 1.1063476e-38
7.0822864 0.45145983 0.64185756 9.219563e-39
7.1138978 0.45459241 0.68248832 1.1340062e-38
7.1103415 0.4556585 0.72013366 1.0325911e-38
7.2113442 0.46292427 0.76831198 9.4039542e-39
7.1375384 0.45983127 0.7990672 9.5883455e-39
7.1333723 0.4608674 0.83683592 9.7727368e-39
7.1638665 0.46397725 0.8786487 8.9429761e-39
7.2986269 0.47335625 0.93354964 8.2976067e-39
7.137095 0.46495262 0.95222181 9.219563e-39
7.2017055 0.47014391 0.99921495 8.7585848e-39
7.282104 0.48427296 1.2859356 9.1273674e-39
6.8664074 0.25416645 -1.4199842 8.5741936e-39
6.9054923 0.26089087 -1.3141054 8.2976067e-39
6.8672929 0.262988 -1.2314373 8.8507805e-39
6.868844 0.26828027 -1.1193284 8.2054111e-39
6.8920813 0.27091047 -1.0857475 1.0325911e-38
6.9206982 0.27550301 -1.0153315 8.2976067e-39
6.8739018 0.27541566 -0.9710986 9.6805411e-39
6.8790216 0.2773461 -0.93469197 8.9429761e-39
6.9013577 0.27995861 -0.90060359 1.0879084e-38
6.9409466 0.28326747 -0.86856097 8.9429761e-39
6.8932357 0.28309217 -0.82531577 1.2262019e-38
6.8975921 0.28499228 -0.78880835 1.0418106e-38
6.8843045 0.28617603 -0.7502982 1.0233715e-38
6.8882685 0.28805596 -0.71383768 1.0049324e-38
6.8920407 0.28992802 -0.67735648 1.1063476e-38
6.8956223 0.29179227 -0.64085567 9.6805411e-39
6.9514785 0.29583061 -0.60917866 9.1273674e-39
6.9372044 0.29696092 -0.57084423 8.6663892e-39
6.9227223 0.29807392 -0.53267616 8.2054111e-39
6.9255452 0.29991081 -0.49601507 9.8649324e-39
6.9281764 0.3017396 -0.45933926 8.2976067e-39
6.9306149 0.3035602 -0.42264974 9.7727368e-39
6.8978028 0.30386293 -0.38381925 8.8507805e-39
6.8647771 0.30413935 -0.34534428 9.4961499e-39
6.9016995 0.30744478 -0.31074816 1.097128e-38
6.938448 0.31075981 -0.2757751 1.0510302e-38
6.9048309 0.31099331 -0.23763858 1.1063476e-38
6.9763117 0.31586361 -0.20349187 1.0694693e-38
6.959856 0.31685281 -0.1660379 1.2722997e-38
7.0309806 0.32175443 -0.13086808 1.1340062e-38
6.9439106 0.31956944 -0.09199477 1.1155671e-38
7.0322185 0.32527882 -0.056410585 9.8649324e-39
7.0501041 0.32782677 -0.01932279 1.1340062e-38
7.0326762 0.32876793 0.018057432 9.4039542e-39
7.0326128 0.33049914 0.055292852 8.4819979e-39
7.0499134 0.33303317 0.092658237 1.1247867e-38
7.0494585 0.33475059 0.12998371 1.1708845e-38
7.0488086 0.33645898 0.16730671 1.1616649e-38
7.0479631 0.33815819 0.2046262 1.3368366e-38
7.0644741 0.34067684 0.24243928 1.1524454e-38
7.0807834 0.34319454 0.28043059 1.1985432e-38
7.1319799 0.34738487 0.31996283 1.244641e-38
7.0777102 0.3465448 0.35539621 1.097128e-38
7.0934153 0.34905082 0.39373213 1.456691e-38
7.0738521 0.34985742 0.43032724 1.4013736e-38
7.071629 0.3514995 0.46777719 1.1247867e-38
7.0692096 0.35313204 0.50521541 1.244641e-38
7.1716766 0.35992137 0.55003679 1.097128e-38
7.1163039 0.35896337 0.58402556 1.2538606e-38
7.1482735 0.3623167 0.62452942 9.6805411e-39
7.0750651 0.36043876 0.65633804 1.1616649e-38
7.141592 0.36553377 0.70019066 1.1063476e-38
7.2253256 0.37153035 0.74644834 1.0233715e-38
7.2214437 0.37313321 0.78469056 1.2354214e-38
7.0951734 0.36850828 0.80979663 1.0879084e-38
7.213079 0.37630847 0.86111265 1.0510302e-38
7.2260308 0.37877658 0.90134692 8.8507805e-39
7.2910304 0.38394046 0.94818312 8.8507805e-39
7.2809482 0.3870706 1.0253288 1.1247867e-38
6.9062171 0.19286655 -1.3354405 8.2054111e-39
6.9392543 0.20380537 -1.1523452 9.6805411e-39
6.9164152 0.20704325 -1.0733876 8.5741936e-39
6.9220333 0.20919058 -1.0367869 8.5741936e-39
6.950088 0.21403092 -0.96596843 1.0602497e-38
6.9029212 0.21445689 -0.92205524 1.1155671e-38
6.9425845 0.21771817 -0.8901009 1.0418106e-38
6.929811 0.21925443 -0.85116714 1.0233715e-38
6.9517064 0.22194409 -0.81660229 1.0694693e-38
6.9210734 0.22286671 -0.77578938 1.0141519e-38
6.9775195 0.22673973 -0.74493331 9.0351717e-39
6.963943 0.22823437 -0.70618236 1.2169823e-38
6.9501548 0.22971204 -0.66759396 1.097128e-38
6.9569445 0.23384872 -0.59402341 9.5883455e-39
6.9950614 0.23714954 -0.56014258 9.0351717e-39
6.9804754 0.23858467 -0.52175796 1.0786889e-38
6.9832015 0.24063417 -0.48482352 1.0510302e-38
7.0032606 0.2433133 -0.44906527 9.0351717e-39
7.0056057 0.24535386 -0.41201183 1.1893236e-38
6.9902191 0.24674065 -0.37393919 1.0325911e-38
6.9746289 0.24811026 -0.33603901 1.1708845e-38
6.9763823 0.25011933 -0.29913566 9.8649324e-39
7.0656943 0.25542945 -0.26588094 1.097128e-38
7.0495243 0.25678217 -0.22786152 1.2262019e-38
6.9453688 0.25475982 -0.18727954 1.1247867e-38
7.0516987 0.26078865 -0.15326548 1.2999584e-38
7.0349317 0.26209924 -0.11559524 1.1893236e-38
7.0882163 0.26613757 -0.079193465 1.2538606e-38
7.0359311 0.26605064 -0.041155625 1.1340062e-38
7.0537019 0.26871082 -0.0040206639 1.2722997e-38
7.0888424 0.27207378 0.033302665 1.1616649e-38
7.0886583 0.27403691 0.070802674 1.3552758e-38
7.0882773 0.27599216 0.10830161 1.2907388e-38
7.0525775 0.27650905 0.1452399 1.3737149e-38
7.0869265 0.27987874 0.18329217 1.1432258e-38
7.1035132 0.28253466 0.2212448 1.2077628e-38
7.0672359 0.28300372 0.2577112 1.4105931e-38
7.1009779 0.28638217 0.2963911 1.3183975e-38
7.1345091 0.28977114 0.33543113 1.3737149e-38
7.0801125 0.28945333 0.37067792 1.2262019e-38
7.0781612 0.29134351 0.40813133 1.4474714e-38
7.0935459 0.29397801 0.44658843 1.1616649e-38
7.161304 0.29888502 0.48853496 1.2999584e-38
7.1061711 0.29848734 0.52282047 1.2538606e-38
7.1034217 0.30035284 0.56040978 1.3460562e-38
7.2055168 0.30683517 0.60626948 1.2538606e-38
7.2898235 0.31258756 0.65174049 1.0325911e-38
7.2339211 0.31213671 0.68559855 1.1708845e-38
7.2128334 0.31321877 0.72220045 1.2262019e-38
7.1216707 0.31112775 0.75161248 9.4039542e-39
7.2225041 0.31770906 0.80031282 9.4039542e-39
7.2662215 0.32378465 0.88274872 9.0351717e-39
7.291584 0.32906494 0.9639833 8.7585848e-39
6.8839231 0.13643543 -1.4724323 8.3898023e-39
6.9343185 0.15233298 -1.2162662 8.7585848e-39
6.9234366 0.15413912 -1.1765141 8.6663892e-39
6.9296594 0.15638059 -1.13983 1.0049324e-38
6.9588847 0.16131085 -1.069104 8.6663892e-39
6.929801 0.16260681 -1.0269388 8.4819979e-39
6.9526243 0.16529576 -0.99277896 9.1273674e-39
6.940486 0.16703272 -0.95347667 1.0049324e-38
6.9281292 0.16875343 -0.91432899 8.3898023e-39
6.9329777 0.17094766 -0.87762111 1.1893236e-38
6.937634 0.17313647 -0.84088802 9.1273674e-39
6.9420977 0.17531982 -0.80413079 1.0141519e-38
6.9638233 0.17800364 -0.7693606 1.1616649e-38
6.9679112 0.18018124 -0.73246664 1.0694693e-38
6.9543309 0.18183641 -0.69372362 1.2630801e-38
6.9580226 0.18399726 -0.65687948 9.219563e-39
6.9965072 0.18720731 -0.62330574 1.0602497e-38
6.9823279 0.18883444 -0.58468795 8.8507805e-39
6.9854479 0.19098313 -0.54769778 9.5883455e-39
7.0058894 0.1936693 -0.51206148 1.0694693e-38
7.043674 0.19690876 -0.47750518 9.7727368e-39
6.9936428 0.19739321 -0.43663415 9.5883455e-39
6.9959865 0.19951771 -0.39958525 1.1893236e-38
7.015676 0.20220052 -0.3635276 1.1432258e-38
7.070272 0.206027 -0.32909846 1.1616649e-38
7.0545001 0.20757864 -0.29082936 1.2169823e-38
7.0560784 0.20969361 -0.25346264 1.3644953e-38
7.075017 0.21238741 -0.21672393 1.2630801e-38
7.0410867 0.21331358 -0.17816156 1.4013736e-38
7.0596371 0.21599944 -0.14131786 1.4013736e-38
7.0253029 0.21688662 -0.10320367 1.3091779e-38
7.0961609 0.22138195 -0.067065082 1.3552758e-38
7.0965652 0.22346739 -0.029481245 1.2907388e-38
7.0792055 0.22492996 0.0081895152 1.3644953e-38
7.0967832 0.22761771 0.04569139 1.2169823e-38
7.0790296 0.22905627 0.083179206 1.3552758e-38
7.1489096 0.23363379 0.12143611 1.0879084e-38
7.0956321 0.2337908 0.15844718 1.2722997e-38
7.077292 0.23519309 0.1956529 9.6805411e-39
7.0938802 0.23787062 0.23360358 1.2999584e-38
7.1453805 0.24185316 0.27284938 1.4290323e-38
7.1615562 0.24454586 0.31133968 1.3276171e-38
7.142426 0.24591894 0.34852231 1.4013736e-38
7.1932883 0.24993846 0.3888481 1.2262019e-38
7.2088418 0.25263813 0.42786402 1.1063476e-38
7.2066498 0.25466424 0.4660356 1.3737149e-38
7.1516681 0.254641 0.50086838 1.4659105e-38
7.1140475 0.2552664 0.5363391 1.1801041e-38
7.2163906 0.26138628 0.58176893 1.2907388e-38
7.1958818 0.26269102 0.61859542 1.1893236e-38
7.280201 0.26817688 0.66407681 1.1432258e-38
7.2242875 0.26806614 0.69791919 1.1063476e-38
7.3430772 0.27501142 0.74778169 1.097128e-38
7.3392048 0.27701679 0.78665435 1.1708845e-38
7.23033 0.2747018 0.81445706 9.219563e-39
7.2993703 0.28618059 0.9784838 8.7585848e-39
6.933207 0.11672011 -1.1221102 1.0049324e-38
6.9565239 0.11932728 -1.0881774 8.9429761e-39
6.9623127 0.12154434 -1.0513275 9.5883455e-39
6.9559178 0.12555756 -0.97501504 1.0879084e-38
6.9785175 0.12816876 -0.94060069 8.3898023e-39
6.9835315 0.13036779 -0.90363628 9.6805411e-39
6.9625096 0.13606746 -0.78845584 1.0510302e-38
6.9841881 0.13867675 -0.75355202 1.097128e-38
7.0755777 0.14307322 -0.72598302 1.2262019e-38
6.9745812 0.14256069 -0.6777513 1.1063476e-38
6.9957075 0.14517121 -0.64251059 8.4819979e-39
6.9991593 0.14732598 -0.60545772 1.0510302e-38
7.0724411 0.1513422 -0.57446277 1.2077628e-38
6.9879656 0.15114816 -0.5298717 1.0510302e-38
6.9908271 0.15328211 -0.49285984 1.1155671e-38
7.0460763 0.15685822 -0.45956558 1.1155671e-38
7.0310345 0.15850957 -0.42109752 1.0325911e-38
7.0333247 0.16063796 -0.38386083 1.1801041e-38
7.0178752 0.16226266 -0.34564334 1.0602497e-38
7.1075153 0.16689195 -0.31286198 1.3829344e-38
7.1092367 0.16902454 -0.2752257 1.4290323e-38
7.0580897 0.16960992 -0.23549981 1.4013736e-38
7.0769668 0.17223448 -0.19872421 1.3276171e-38
7.0605273 0.17381524 -0.16073839 1.4474714e-38
7.0438871 0.17537986 -0.12293056 1.3183975e-38
7.0973153 0.17906602 -0.086606547 1.2538606e-38
7.0978513 0.1811583 -0.04902472 1.4659105e-38
7.0981898 0.18324453 -0.011440235 1.2354214e-38
7.1510391 0.18697383 0.025994297 9.4039542e-39
7.0982761 0.18739861 0.063732445 1.2538606e-38
7.115592 0.19002619 0.1014519 1.3091779e-38
7.1502767 0.19322249 0.13957885 1.2077628e-38
7.3077197 0.20042197 0.1802903 1.4474714e-38
7.3068514 0.2025308 0.21897143 1.0233715e-38
7.0950437 0.19767395 0.25163803 1.0602497e-38
7.1464815 0.20146441 0.29098442 1.1155671e-38
7.2328115 0.20645784 0.33224425 1.0879084e-38
7.1609449 0.20614079 0.36742756 1.3460562e-38
7.1941919 0.20937592 0.40707636 1.2354214e-38
7.2096791 0.21201925 0.44612253 1.1616649e-38
7.2074199 0.21405597 0.48428965 9.8649324e-39
7.1874309 0.21547131 0.52130139 1.2722997e-38
7.202302 0.21810848 0.56058681 9.957128e-39
7.21696 0.22074831 0.60004151 1.0325911e-38
7.2806339 0.22730298 0.6824739 1.0602497e-38
7.2246542 0.22740543 0.71620667 9.0351717e-39
7.3433714 0.23390526 0.76630139 8.6663892e-39
7.2304931 0.2340254 0.83275574 8.8507805e-39
7.1065435 -0.043648865 -1.1204754 8.7585848e-39
7.0473356 -0.032560647 -0.92015475 8.3898023e-39
7.0522604 -0.03027926 -0.88281131 8.2976067e-39
7.0744328 -0.027893336 -0.84760958 9.7727368e-39
7.0964313 -0.025497479 -0.81220108 1.0049324e-38
7.0874734 -0.02104326 -0.73508692 8.3898023e-39
7.0739417 -0.018890455 -0.69573319 1.3552758e-38
7.0845923 -0.012073928 -0.58323509 1.0510302e-38
7.070231 -0.0099549508 -0.54426378 1.0694693e-38
7.0907097 -0.0075375857 -0.50814873 1.1155671e-38
7.1110048 -0.0051109162 -0.47183535 1.2354214e-38
7.1135769 -0.0028416268 -0.43416324 1.1340062e-38
7.1861305 0.00011431283 -0.4007566 1.0694693e-38
7.1883283 0.0024018292 -0.36269248 1.0510302e-38
7.1903267 0.0046873307 -0.32461724 9.1273674e-39
7.1745663 0.0067820912 -0.28573751 9.5883455e-39
7.2464132 0.0098344684 -0.25054532 1.0694693e-38
7.2302556 0.011930356 -0.21155675 1.0049324e-38
7.0909066 0.01257708 -0.16911224 9.3117586e-39
7.0567479 0.014397426 -0.1306939 1.0879084e-38
7.0575314 0.016625678 -0.09330871 1.2169823e-38
7.23387 0.021067072 -0.058353528 9.4961499e-39
7.1815434 0.022664027 -0.019588597 1.2262019e-38
7.252048 0.02585296 0.018209362 1.0510302e-38
7.2520475 0.028131155 0.056614026 9.4961499e-39
7.2690172 0.03292812 0.13363722 9.7727368e-39
7.2859845 0.035457622 0.17243737 1.1432258e-38
7.3027463 0.037995044 0.21141768 1.0510302e-38
7.2478151 0.041740924 0.28699753 8.3898023e-39
7.263967 0.04427461 0.3260527 8.8507805e-39
