# .PCD v0.7 - Point Cloud Data file format
VERSION 0.7
FIELDS x y z rgb
SIZE 4 4 4 4
TYPE F F F F
COUNT 1 1 1 1
WIDTH 1056
HEIGHT 1
VIEWPOINT 9.43 11.0879 4.9 0.992387 0.0575732 -0.00698004 -0.108645
POINTS 1056
DATA ascii
3.9911659 2.2235656 -0.9478001 1.1708845e-38
3.994736 2.2232485 -0.9260968 1.1708845e-38
4.0676579 2.2225032 -0.91524857 1.3183975e-38
4.0189157 2.2225082 -0.88526303 1.2999584e-38
4.0569458 2.2219722 -0.86848795 1.2538606e-38
4.0252857 2.2218769 -0.84155077 1.4013736e-38
4.063138 2.2213371 -0.82437843 1.3276171e-38
4.1183553 2.220679 -0.80908847 1.4290323e-38
4.1211972 2.2203593 -0.78672111 1.3552758e-38
4.141376 2.219924 -0.76641935 1.4751301e-38
4.1789241 2.2193689 -0.74790955 1.3368366e-38
4.1989198 2.2189288 -0.7271232 1.4382518e-38
4.1488771 2.2189682 -0.69891763 1.1801041e-38
4.1511421 2.2186511 -0.67639184 1.392154e-38
4.2057962 2.2179661 -0.6587224 1.3276171e-38
4.1903391 2.2177713 -0.63436818 1.3737149e-38
4.2448211 2.2170777 -0.61594403 1.3460562e-38
4.2291241 2.2168844 -0.59156948 1.2999584e-38
4.3184896 2.2159262 -0.57490373 1.3737149e-38
4.3551803 2.2153442 -0.55381948 1.4751301e-38
4.3391376 2.2151499 -0.52914339 1.4659105e-38
4.3580608 2.2146952 -0.5066039 1.3829344e-38
4.4470911 2.2137067 -0.48742706 1.3368366e-38
4.4658036 2.2132437 -0.4641391 1.3829344e-38
4.4668345 2.2129152 -0.43995711 1.5304475e-38
4.397471 2.2131348 -0.41332012 1.4105931e-38
4.5387955 2.2117081 -0.39366052 1.4290323e-38
4.4867392 2.2117953 -0.3678118 1.3183975e-38
4.5751367 2.2107666 -0.34520391 1.3644953e-38
4.5755434 2.2104354 -0.32045102 1.4382518e-38
4.6637049 2.2093902 -0.2964586 1.4290323e-38
4.7517419 2.2083337 -0.27154475 1.4013736e-38
4.75176 2.2079937 -0.24586819 1.456691e-38
4.6813354 2.2082412 -0.22068645 1.4290323e-38
4.8041215 2.2068729 -0.19386952 1.456691e-38
4.8916068 2.2057869 -0.16638128 1.539667e-38
4.8207803 2.206043 -0.14157264 1.4843496e-38
4.9958229 2.2041886 -0.11061931 1.3737149e-38
5.0652661 2.2032278 -0.081332177 1.4105931e-38
5.0291553 2.203182 -0.055367943 1.3644953e-38
5.045598 2.2026768 -0.027474167 1.3091779e-38
5.2198977 2.2007644 0.0083331764 1.3091779e-38
5.200892 2.2005613 0.035505708 1.3552758e-38
5.357214 2.198776 0.07291989 1.2630801e-38
5.3027978 2.1988881 0.098356396 1.3368366e-38
5.4411473 2.1972384 0.13672934 1.244641e-38
5.5617127 2.1957335 0.17524166 1.3368366e-38
5.4892974 2.1960096 0.19951089 1.2538606e-38
5.5744038 2.1948168 0.23655421 1.2169823e-38
6.2894516 2.187654 0.33188295 1.2354214e-38
5.971354 2.1902339 0.33526224 1.1616649e-38
5.845767 2.1910107 0.35487625 1.1063476e-38
6.1396103 2.1877494 0.41804028 9.0351717e-39
5.9962564 2.1887038 0.43529278 8.7585848e-39
3.7948806 2.2535284 -1.3006313 9.957128e-39
3.8002865 2.2531872 -1.2799767 9.6805411e-39
3.8448966 2.2523553 -1.2470417 8.7585848e-39
3.8329375 2.2520893 -1.2219864 9.219563e-39
5.5826454 2.2437639 -1.6142259 1.0325911e-38
3.8256891 2.2514877 -1.1762947 1.0879084e-38
3.8304434 2.2511494 -1.1554805 1.0786889e-38
3.8522551 2.2507291 -1.1384224 9.1273674e-39
3.8568103 2.2503903 -1.1174695 1.0602497e-38
3.8612564 2.250052 -1.0964931 1.0325911e-38
3.8828158 2.2496274 -1.0790044 1.2262019e-38
3.8870602 2.2492888 -1.0578923 9.5883455e-39
3.8911934 2.2489507 -1.0367583 1.1063476e-38
3.8952162 2.2486134 -1.0156031 1.1340062e-38
3.9164209 2.2481837 -0.99757612 1.0602497e-38
3.9721673 2.2475634 -0.98546517 1.1155671e-38
3.9239442 2.2475088 -0.95498252 1.2999584e-38
3.9275382 2.2471724 -0.93365675 1.2538606e-38
3.9483759 2.246738 -0.91509885 1.2907388e-38
3.9865003 2.2462015 -0.89903677 1.3183975e-38
3.9898005 2.2458627 -0.87738425 1.2722997e-38
3.97559 2.2456272 -0.85320115 1.2999584e-38
3.9960604 2.245187 -0.83402872 1.3829344e-38
4.0687103 2.2444277 -0.82165176 1.4105931e-38
4.0367351 2.2442999 -0.7950899 1.2999584e-38
4.0743823 2.2437449 -0.77747303 1.4013736e-38
4.0945015 2.2432947 -0.75741923 1.3644953e-38
4.1494613 2.2426198 -0.74110061 1.3091779e-38
4.0994992 2.2426133 -0.71297383 1.3460562e-38
4.1367974 2.2420456 -0.69429779 1.3460562e-38
4.1740155 2.2414732 -0.67524356 1.4474714e-38
4.1761413 2.2411296 -0.65261215 1.2538606e-38
4.2131743 2.2405505 -0.63298589 1.392154e-38
4.2325983 2.2400861 -0.61156636 1.2722997e-38
4.1993346 2.2399826 -0.58598006 1.244641e-38
4.3237333 2.2387846 -0.57184637 1.2999584e-38
4.2025309 2.2393 -0.54044616 1.3368366e-38
4.3443213 2.2379591 -0.52605969 1.392154e-38
4.3105597 2.2378619 -0.5006243 1.4198127e-38
4.3468819 2.2372596 -0.47901085 1.392154e-38
4.3304167 2.2370405 -0.45470366 1.3183975e-38
4.4719005 2.2356501 -0.43670747 1.3829344e-38
4.4025021 2.2358217 -0.41016191 1.4474714e-38
4.6316538 2.2337396 -0.39280444 1.2630801e-38
4.4741373 2.2345848 -0.36413184 1.3368366e-38
4.5449286 2.2336879 -0.34118694 1.3829344e-38
4.5804524 2.2330558 -0.31706083 1.4474714e-38
4.668582 2.2320035 -0.29295313 1.3737149e-38
4.6686988 2.2316387 -0.26773742 1.4013736e-38
4.7565708 2.2305684 -0.24224807 1.3829344e-38
4.6861129 2.2307696 -0.21715917 1.4843496e-38
4.7912879 2.229543 -0.19042033 1.5212279e-38
4.6678452 2.23019 -0.16687872 1.4290323e-38
4.9133158 2.2277787 -0.13575004 1.3644953e-38
4.8247557 2.2281415 -0.11182878 1.4935692e-38
4.859056 2.2274742 -0.08458434 1.3460562e-38
4.9634604 2.2262008 -0.054181959 1.456691e-38
5.0325613 2.2252169 -0.024262965 1.456691e-38
5.0663762 2.2245297 0.004619977 1.3276171e-38
5.2053323 2.2229128 0.03971019 1.3737149e-38
5.2036996 2.2225213 0.067731768 1.2538606e-38
5.3071556 2.22119 0.10269348 1.3368366e-38
5.2350597 2.2214262 0.12624733 1.3644953e-38
5.4257607 2.2192824 0.16918291 1.3644953e-38
5.3708897 2.219362 0.19405629 1.2538606e-38
5.6661348 2.2162111 0.24887131 1.1616649e-38
5.6634002 2.2157938 0.27930272 1.1708845e-38
5.765471 2.2143912 0.31997031 1.2262019e-38
5.8672719 2.212975 0.36172131 1.1985432e-38
5.9513197 2.2117124 0.40266219 1.1432258e-38
6.0001707 2.2107754 0.44053379 1.1155671e-38
6.2233353 2.208138 0.49967968 8.7585848e-39
5.4942017 2.2464337 -1.7502562 1.0510302e-38
5.484921 2.2460179 -1.7162915 9.4039542e-39
5.5265579 2.245384 -1.6954193 8.8507805e-39
5.5510678 2.2448201 -1.6699221 9.1273674e-39
5.5754657 2.2442539 -1.6442074 9.4039542e-39
5.5826454 2.2437639 -1.6142259 1.1063476e-38
5.5896673 2.2432747 -1.5842072 1.1063476e-38
5.6136789 2.2427049 -1.5580227 1.0694693e-38
3.8179219 2.2508943 -1.1308608 1.0510302e-38
3.8396244 2.2504742 -1.1137787 1.1432258e-38
5.6850023 2.2409825 -1.4781804 1.097128e-38
5.7085347 2.2404041 -1.4511383 1.1155671e-38
3.8870602 2.2492888 -1.0578923 1.0786889e-38
3.8739336 2.2490406 -1.0334282 1.244641e-38
3.8779392 2.2487047 -1.0123632 1.1524454e-38
3.881834 2.2483692 -0.99127758 1.244641e-38
3.9202383 2.2478459 -0.97628915 1.1063476e-38
3.9239442 2.2475088 -0.95498252 1.3644953e-38
3.9275382 2.2471724 -0.93365675 1.2999584e-38
3.9310203 2.2468364 -0.91231245 1.2722997e-38
3.9517605 2.2464013 -0.8936457 1.2262019e-38
3.9550331 2.2460654 -0.8721751 1.1893236e-38
3.97559 2.2456272 -0.85320115 1.3276171e-38
3.9786506 2.2452912 -0.83160633 1.3737149e-38
4.033865 2.2446389 -0.81698936 1.4935692e-38
4.0193005 2.2444069 -0.79284996 1.4198127e-38
4.0569358 2.2438533 -0.77532434 1.3829344e-38
4.0595875 2.2435143 -0.75330466 1.5212279e-38
4.0795908 2.2430649 -0.73323721 1.4659105e-38
4.0994992 2.2426133 -0.71297383 1.3737149e-38
4.0843363 2.2423878 -0.68894929 1.4198127e-38
4.1040311 2.241935 -0.66847849 1.4198127e-38
4.106122 2.2415969 -0.64621365 1.3183975e-38
4.1080971 2.2412598 -0.62393808 1.4474714e-38
4.1449957 2.240684 -0.60448503 1.3829344e-38
4.1993346 2.2399826 -0.58598006 1.2722997e-38
4.2360611 2.2393963 -0.56568277 1.4013736e-38
4.2025309 2.2393 -0.54044616 1.5488866e-38
4.2565889 2.2385848 -0.52081442 1.3368366e-38
4.2930079 2.2379885 -0.49966711 1.3737149e-38
4.3468819 2.2372596 -0.47901085 1.4290323e-38
4.3128557 2.2371697 -0.45393032 1.3829344e-38
4.3840785 2.2363029 -0.4333005 1.3183975e-38
4.4025021 2.2358217 -0.41016191 1.3829344e-38
4.3856654 2.2356052 -0.38584033 1.2907388e-38
4.4741373 2.2345848 -0.36413184 1.4935692e-38
4.4570546 2.2343676 -0.33961979 1.3644953e-38
4.4749951 2.2338796 -0.31573236 1.4290323e-38
4.5982738 2.232558 -0.29243559 1.4290323e-38
4.6686988 2.2316387 -0.26773742 1.3829344e-38
4.6159511 2.2316988 -0.24268545 1.3091779e-38
4.5982285 2.2314827 -0.21789266 1.4751301e-38
4.7912879 2.229543 -0.19042033 1.5673257e-38
4.6678452 2.23019 -0.16687872 1.4935692e-38
4.7375913 2.2292442 -0.13997751 1.3737149e-38
4.8247557 2.2281415 -0.11182878 1.4198127e-38
4.911757 2.2270267 -0.082764156 1.4843496e-38
4.9634604 2.2262008 -0.054181959 1.4659105e-38
4.9272032 2.2261274 -0.029006798 1.3460562e-38
5.0663762 2.2245297 0.004619977 1.4105931e-38
4.9245257 2.2253821 0.024118777 1.3644953e-38
5.0633392 2.2237663 0.059201043 1.3091779e-38
5.2369986 2.2218175 0.098060742 1.3552758e-38
5.2350597 2.2214262 0.12624733 1.4474714e-38
5.4257607 2.2192824 0.16918291 1.4290323e-38
5.3533711 2.2195227 0.19262278 1.3368366e-38
5.5960903 2.2168591 0.24277048 1.2538606e-38
5.6458974 2.2159572 0.27768579 1.2538606e-38
5.6605058 2.215378 0.30971935 1.3829344e-38
5.884757 2.2128093 0.36352131 1.2262019e-38
5.7590919 2.2135491 0.38185474 1.1247867e-38
6.0001707 2.2107754 0.44053379 1.1893236e-38
6.2233353 2.208138 0.49967968 8.2976067e-39
5.497416 2.302182 -1.7445742 1.0602497e-38
5.5051017 2.3016274 -1.7150047 8.2054111e-39
5.5296788 2.301044 -1.6896839 1.0141519e-38
5.537076 2.300488 -1.6599463 1.097128e-38
5.5784993 2.2998679 -1.6383899 9.1273674e-39
5.5856276 2.2993093 -1.6083974 1.0049324e-38
5.6097317 2.2987151 -1.5822986 1.1340062e-38
5.6165657 2.2981555 -1.5521433 1.0510302e-38
3.8372281 2.3016503 -1.1318485 1.1155671e-38
3.8417284 2.3012643 -1.1109786 1.2077628e-38
5.6877532 2.2963517 -1.4721816 1.2815193e-38
5.6940088 2.2957885 -1.4416192 1.2538606e-38
3.8718209 2.3000624 -1.0516224 1.2262019e-38
3.8759005 2.2996759 -1.0305727 1.2815193e-38
5.7809463 2.2939057 -1.3625808 1.3276171e-38
3.8837287 2.2989037 -0.98841023 1.4013736e-38
3.8874776 2.2985182 -0.96729892 1.3091779e-38
3.8911157 2.2981329 -0.94616824 1.2262019e-38
3.9119883 2.2976925 -0.92786592 1.0694693e-38
3.9154196 2.2973063 -0.90660745 1.3091779e-38
3.9187393 2.2969205 -0.88533127 1.1985432e-38
3.9219475 2.296535 -0.86403799 1.2538606e-38
3.9250441 2.29615 -0.8427282 1.2999584e-38
3.9802728 2.2955739 -0.82857925 1.4659105e-38
4.0006094 2.2951193 -0.80926561 1.4935692e-38
3.9685414 2.294863 -0.7831251 1.3737149e-38
3.9886632 2.2944076 -0.76369089 1.4290323e-38
4.0610766 2.2937384 -0.7501415 1.4013736e-38
4.0286326 2.2934885 -0.72423351 1.4290323e-38
4.0484767 2.2930245 -0.70421118 1.3644953e-38
4.0857153 2.2924826 -0.68574631 1.4659105e-38
4.0703769 2.2921655 -0.66192049 1.5120083e-38
4.0899205 2.2916949 -0.64140558 1.2907388e-38
4.109365 2.2912219 -0.62069708 1.5765453e-38
4.1462307 2.290664 -0.60118127 1.4935692e-38
4.1128874 2.2904339 -0.57611227 1.4935692e-38
4.1320105 2.2899559 -0.55500907 1.392154e-38
4.2036567 2.2892153 -0.53704602 1.4935692e-38
4.1348438 2.2891681 -0.51019073 1.5027888e-38
4.2062984 2.2884159 -0.49147847 1.2815193e-38
4.2601142 2.2877429 -0.47118977 1.5488866e-38
4.2787113 2.2872467 -0.44885778 1.4751301e-38
4.3498917 2.2864642 -0.42828998 1.4013736e-38
4.3331318 2.2861507 -0.4041864 1.3737149e-38
4.3513856 2.2856455 -0.38119709 1.2999584e-38
4.4046693 2.2849388 -0.35877079 1.4843496e-38
4.422689 2.2844255 -0.33522356 1.3644953e-38
4.387856 2.2842174 -0.31091702 1.4013736e-38
4.5286698 2.2829742 -0.28796789 1.5488866e-38
4.5111632 2.2826588 -0.26348227 1.392154e-38
4.5462618 2.2820251 -0.2389257 1.3644953e-38
4.4406147 2.2822576 -0.2154177 1.4198127e-38
4.7039433 2.2801886 -0.18736573 1.392154e-38
4.650763 2.2800908 -0.16305396 1.4659105e-38
4.7204661 2.2792079 -0.13612571 1.3829344e-38
4.8427248 2.2779675 -0.10682987 1.392154e-38
4.9121079 2.2770565 -0.07816153 1.4013736e-38
4.8408246 2.2770808 -0.054594107 1.4935692e-38
4.8221111 2.2767587 -0.029305272 1.4198127e-38
5.0139179 2.2749832 0.0067469464 1.4659105e-38
5.0650854 2.2741585 0.036776114 1.3737149e-38
5.0634484 2.2736993 0.064058691 1.3552758e-38
5.1142812 2.2728627 0.094897494 1.3368366e-38
5.2350564 2.2715075 0.13139811 1.4659105e-38
5.2329216 2.2710359 0.15956931 1.456691e-38
5.3532553 2.2696505 0.19797459 1.3644953e-38
5.595892 2.2673192 0.24853861 1.2354214e-38
5.540638 2.2672203 0.27365634 1.2722997e-38
5.6601934 2.2657788 0.31559557 1.3276171e-38
5.5871601 2.2658222 0.33866951 1.2999584e-38
5.7586565 2.2639422 0.38789773 1.244641e-38
6.0694857 2.260915 0.45504227 1.1616649e-38
6.2227044 2.2591066 0.50651795 1.0233715e-38
5.4954748 2.325506 -1.7395926 9.5883455e-39
5.4860954 2.3249028 -1.7056578 9.5883455e-39
5.5276723 2.3242512 -1.6846664 1.097128e-38
5.5691824 2.3235922 -1.6632791 1.1985432e-38
5.5593357 2.3229895 -1.6292275 1.1616649e-38
5.5835242 2.3223445 -1.6033171 1.1616649e-38
5.6075969 2.3216963 -1.577191 1.2354214e-38
5.6487107 2.3210175 -1.5546696 1.0879084e-38
5.6382122 2.3204176 -1.5205621 1.1432258e-38
5.6619105 2.3197606 -1.493881 1.1893236e-38
5.702703 2.319068 -1.4705366 1.1893236e-38
5.708941 2.3184364 -1.439878 1.2907388e-38
5.7150183 2.3178053 -1.4091871 1.244641e-38
5.7727432 2.3170609 -1.388304 1.2815193e-38
3.8770523 2.3207939 -1.0064609 1.392154e-38
3.8808861 2.3203621 -0.98536581 1.3183975e-38
3.8846097 2.3199306 -0.96425092 1.3552758e-38
3.8882225 2.3194993 -0.94311678 1.2077628e-38
3.9090734 2.3190212 -0.92479062 1.2907388e-38
3.9124792 2.3185887 -0.90352893 1.3552758e-38
7.0438032 2.3090088 -1.3583167 1.2354214e-38
3.9189563 2.3177245 -0.86095351 1.4843496e-38
3.9394324 2.3172386 -0.84210366 1.4843496e-38
3.9424045 2.3168054 -0.82068413 1.4751301e-38
3.9626944 2.3163147 -0.80152971 1.4013736e-38
3.9828951 2.3158205 -0.78217804 1.5765453e-38
4.003005 2.3153229 -0.76262951 1.5120083e-38
4.0230236 2.3148222 -0.74288458 1.456691e-38
4.0080013 2.3144493 -0.71911383 1.68718e-38
4.0452952 2.3138783 -0.70098376 1.5488866e-38
4.0825119 2.3133006 -0.68247569 1.4751301e-38
4.0321422 2.313071 -0.65538836 1.392154e-38
4.1041737 2.3123429 -0.6396805 1.456691e-38
4.123601 2.3118248 -0.6188581 1.5027888e-38
4.0903521 2.311533 -0.5937469 1.4751301e-38
4.1270852 2.3109357 -0.5740875 1.5212279e-38
4.1286511 2.310492 -0.55168915 1.392154e-38
4.1651883 2.3098848 -0.53146249 1.5027888e-38
4.2191787 2.3091872 -0.51185912 1.5120083e-38
4.1677542 2.3089926 -0.48626116 1.4382518e-38
4.2566552 2.3081105 -0.46772191 1.4843496e-38
4.240099 2.3077462 -0.44392437 1.5488866e-38
4.2936816 2.3070219 -0.42282695 1.4474714e-38
4.2768836 2.3066587 -0.39902008 1.5120083e-38
4.3829637 2.3056376 -0.37851778 1.3829344e-38
4.4010763 2.3050776 -0.35513675 1.539667e-38
4.4190674 2.3045144 -0.33156922 1.3737149e-38
4.3490515 2.3044486 -0.30696419 1.5212279e-38
4.524992 2.3029728 -0.28419027 1.5581061e-38
4.4723005 2.3028083 -0.25975379 1.5120083e-38
4.5073705 2.3021286 -0.2353408 1.5120083e-38
4.5950403 2.301121 -0.20996723 1.4105931e-38
4.6649947 2.3002052 -0.18396473 1.4659105e-38
4.6469359 2.2998297 -0.15913723 1.5488866e-38
4.7166071 2.2988963 -0.13212775 1.3737149e-38
4.6982818 2.2985206 -0.10721472 1.539667e-38
4.7852221 2.2974534 -0.078543603 1.4013736e-38
4.8368688 2.2966049 -0.05045731 1.5304475e-38
4.8356824 2.2961054 -0.024350019 1.392154e-38
4.8870177 2.295243 0.004551209 1.456691e-38
4.9030905 2.2946169 0.031945679 1.4198127e-38
4.9716406 2.2936141 0.062867492 1.4198127e-38
5.162755 2.2917128 0.10297835 1.4105931e-38
5.1081724 2.2915697 0.12688716 1.5027888e-38
5.3688898 2.289098 0.17530118 1.4013736e-38
5.1037903 2.2905276 0.18192622 1.3460562e-38
5.4165063 2.2876058 0.23779526 1.3091779e-38
5.3788056 2.2873268 0.26359802 1.4751301e-38
5.5158815 2.2856865 0.30661172 1.244641e-38
5.5827355 2.2845745 0.34367186 1.4013736e-38
5.5620041 2.284152 0.37173644 1.2354214e-38
6.1522198 2.2787616 0.47077778 1.1616649e-38
6.1657343 2.2780008 0.50588918 1.0879084e-38
5.5492797 2.3899179 -1.7004648 1.0602497e-38
5.5639453 2.3884232 -1.6407766 9.4039542e-39
5.5881567 2.3876624 -1.6148913 1.0325911e-38
5.5951185 2.3869131 -1.5848639 1.1616649e-38
5.6362324 2.3861275 -1.5624729 9.4961499e-39
5.6429195 2.3853741 -1.5321945 1.2722997e-38
5.683835 2.3845754 -1.5091944 1.2630801e-38
5.655817 2.3838677 -1.471535 9.957128e-39
5.6964898 2.3830607 -1.4481077 1.0510302e-38
5.7198257 2.3822742 -1.4209013 1.0786889e-38
5.7775693 2.3814201 -1.400074 1.1432258e-38
5.7834034 2.3806548 -1.369058 1.2538606e-38
5.8236752 2.3798177 -1.3442411 1.1247867e-38
5.829216 2.3790483 -1.3129843 1.1893236e-38
5.8865886 2.3781579 -1.2904992 1.1801041e-38
3.9143226 2.3822639 -0.93485862 1.1801041e-38
7.0948739 2.3735003 -1.4171723 1.1340062e-38
3.9210608 2.3812222 -0.89232773 1.244641e-38
3.9416523 2.3806524 -0.87360626 1.1247867e-38
3.9447563 2.3801303 -0.8522073 1.1985432e-38
3.9303324 2.3796623 -0.82840484 1.4105931e-38
3.9506269 2.379087 -0.80936223 1.3091779e-38
7.0052462 2.368351 -1.1738292 1.3091779e-38
3.9909496 2.3779237 -0.77068579 1.2722997e-38
6.9793911 2.3666599 -1.0948813 1.3460562e-38
4.0134358 2.3768094 -0.72929245 1.392154e-38
4.0157828 2.3762832 -0.70751965 1.5304475e-38
4.0529971 2.3756185 -0.68923104 1.4659105e-38
4.0551338 2.3750889 -0.66725171 1.392154e-38
4.0571547 2.3745596 -0.64526141 1.244641e-38
4.0765772 2.3739548 -0.6247341 1.4751301e-38
4.0958986 2.3733461 -0.60401362 1.4290323e-38
4.0975885 2.3728139 -0.58181077 1.4935692e-38
4.1342359 2.3721168 -0.56199533 1.4659105e-38
4.1532478 2.3714967 -0.54069853 1.3829344e-38
4.1546049 2.3709595 -0.51819628 1.4751301e-38
4.1382904 2.3705122 -0.49476486 1.4659105e-38
4.1745238 2.3697956 -0.4740026 1.5304475e-38
4.2282181 2.3689773 -0.45360571 1.4013736e-38
4.2466841 2.3683381 -0.43135884 1.4382518e-38
4.2123289 2.3679893 -0.40725952 1.4474714e-38
4.3008451 2.3669486 -0.38676342 1.4290323e-38
4.248672 2.3667054 -0.36237836 1.4290323e-38
4.3018208 2.3658493 -0.34021521 1.4843496e-38
4.3900099 2.3647673 -0.31787154 1.3368366e-38
4.4253511 2.3639908 -0.29432234 1.4290323e-38
4.3902588 2.3636506 -0.27039352 1.4290323e-38
4.3550415 2.3633196 -0.24683273 1.4198127e-38
4.5130477 2.3617299 -0.22164623 1.4290323e-38
4.5127287 2.3611593 -0.19726473 1.4290323e-38
4.5298557 2.3604698 -0.17251991 1.5488866e-38
4.6522818 2.3590465 -0.14484997 1.4935692e-38
4.5637131 2.3590808 -0.12248699 1.392154e-38
4.5804396 2.3583813 -0.097200327 1.4198127e-38
4.7024045 2.3569093 -0.067335419 1.3460562e-38
4.8417406 2.3552783 -0.035363894 1.3460562e-38
4.8053336 2.3549383 -0.011098219 1.4751301e-38
4.8916507 2.3536658 0.019854944 1.4751301e-38
4.8725185 2.3531935 0.045114428 1.4198127e-38
5.0637045 2.3510609 0.084492147 1.3829344e-38
5.0793047 2.3502917 0.11303648 1.2722997e-38
5.1122718 2.3493767 0.14312994 1.4843496e-38
5.1800981 2.3481641 0.17651461 1.392154e-38
5.1601758 2.347672 0.20282325 1.4290323e-38
5.3326221 2.3455429 0.24709761 1.3183975e-38
5.3123455 2.3450387 0.27402055 1.3368366e-38
5.3793445 2.3437722 0.3099165 1.3737149e-38
5.4111724 2.3428016 0.34267724 1.3276171e-38
5.5650363 2.3407204 0.38990688 1.3368366e-38
5.5789499 2.3398812 0.42189577 1.1432258e-38
5.8717103 2.3364499 0.48924547 1.0786889e-38
5.5539551 2.3386862 0.4794904 9.5883455e-39
5.5526676 2.4032743 -1.6843469 1.1155671e-38
5.5599341 2.4024982 -1.6544873 8.8507805e-39
5.5670447 2.4017227 -1.62459 8.6663892e-39
5.6082625 2.4008892 -1.6025224 8.6663892e-39
5.6150999 2.4001093 -1.5723728 1.1247867e-38
5.6389523 2.399296 -1.5459415 1.2077628e-38
5.6798768 2.3984423 -1.5229594 1.0418106e-38
5.7207184 2.3975797 -1.4995832 1.0694693e-38
5.6925559 2.3968711 -1.4618793 1.1616649e-38
5.6986556 2.3960862 -1.4312901 1.0879084e-38
5.7736545 2.3951199 -1.4138817 1.1432258e-38
5.7967834 2.3942788 -1.3860812 1.1155671e-38
5.8197832 2.3934336 -1.3580697 1.1340062e-38
5.8253374 2.3926363 -1.326816 1.0141519e-38
7.1651597 2.3876333 -1.5219769 1.1801041e-38
7.1195159 2.3868301 -1.4751285 1.1524454e-38
7.1256642 2.385864 -1.4370698 1.1708845e-38
7.0794902 2.385083 -1.3909743 1.1801041e-38
7.0330338 2.3843164 -1.3453943 1.1524454e-38
6.9863 2.3835647 -1.3003309 1.1155671e-38
3.9440765 2.3946006 -0.8438158 1.2630801e-38
7.013999 2.3816092 -1.2278897 1.1063476e-38
3.9671786 2.3934484 -0.8031565 1.3737149e-38
6.9537144 2.3800247 -1.1443725 1.3829344e-38
6.9755926 2.3790145 -1.109216 1.3552758e-38
3.9923351 2.3917463 -0.74040747 1.3368366e-38
4.0121613 2.3911219 -0.72057474 1.4290323e-38
6.9877076 2.376215 -0.99724978 1.3276171e-38
4.051528 2.3898613 -0.68032449 1.4013736e-38
7.0298209 2.3741753 -0.92565072 1.3460562e-38
4.0729885 2.3886762 -0.63781697 1.3829344e-38
4.1098418 2.3879406 -0.61849433 1.4013736e-38
4.1115475 2.3873885 -0.59620088 1.5027888e-38
4.0955997 2.386935 -0.57269323 1.5304475e-38
4.1496935 2.386085 -0.55381614 1.5673257e-38
4.1335115 2.385633 -0.53029299 1.4843496e-38
4.1347547 2.3850811 -0.50787681 1.392154e-38
4.1709962 2.3843155 -0.48713061 1.4659105e-38
4.1544509 2.3838701 -0.46377251 1.3460562e-38
4.1904769 2.3830945 -0.44255608 1.4382518e-38
4.2439661 2.3821971 -0.42152977 1.4382518e-38
4.2973523 2.3812869 -0.39994782 1.4474714e-38
4.262763 2.3809562 -0.3759189 1.4198127e-38
4.298347 2.3801525 -0.35340083 1.5120083e-38
4.3162374 2.3794634 -0.33031839 1.3091779e-38
4.2988534 2.3790214 -0.30684587 1.3737149e-38
4.3516574 2.3780749 -0.28359804 1.3829344e-38
4.3691826 2.3773754 -0.25996143 1.4382518e-38
4.5096211 2.3757493 -0.23492563 1.4382518e-38
4.4390092 2.3756974 -0.21160713 1.5120083e-38
4.5264487 2.3744376 -0.18580745 1.4935692e-38
4.4555945 2.3744032 -0.16313744 1.4474714e-38
4.5603256 2.3729804 -0.13579011 1.4659105e-38
4.7175918 2.3711035 -0.10544235 1.3276171e-38
4.5585384 2.3717999 -0.086504042 1.4198127e-38
4.8559456 2.3687072 -0.047971748 1.2907388e-38
4.80199 2.3685308 -0.024508161 1.4935692e-38
4.8356729 2.3676102 0.0034032778 1.4290323e-38
4.7639365 2.3676054 0.02511582 1.3368366e-38
4.955174 2.3652785 0.063858941 1.4013736e-38
4.9708242 2.3644872 0.091845296 1.4290323e-38
4.9337492 2.3641739 0.11589964 1.3737149e-38
5.0717292 2.3622451 0.15417777 1.3460562e-38
5.1043911 2.3612711 0.18460004 1.3829344e-38
5.3643813 2.3581207 0.2367412 1.2815193e-38
5.1516919 2.3594706 0.24477011 1.3737149e-38
5.3761282 2.3565941 0.2962518 1.3276171e-38
5.4079695 2.3555701 0.32899815 1.3368366e-38
5.5618515 2.3533106 0.37616017 1.3552758e-38
5.5757775 2.3524349 0.40814242 1.2722997e-38
5.938324 2.3479621 0.48413277 1.0510302e-38
5.6902328 2.3497665 0.48401478 1.0786889e-38
5.5538716 2.4250357 -1.6550316 9.5883455e-39
5.6022611 2.4234715 -1.603122 8.6663892e-39
5.6262822 2.4226825 -1.5768435 9.7727368e-39
5.6330166 2.421917 -1.5465761 1.1155671e-38
5.6567807 2.4211218 -1.5199574 1.0141519e-38
5.7148376 2.4202585 -1.500312 9.4961499e-39
5.7273417 2.4187112 -1.4388194 1.0049324e-38
5.7506132 2.4178991 -1.4113476 9.8649324e-39
5.7737575 2.417083 -1.3836643 9.957128e-39
7.2149601 2.4127071 -1.6134231 1.097128e-38
5.8369699 2.4153926 -1.3307154 1.0786889e-38
5.8597393 2.414562 -1.3023093 1.0141519e-38
7.1136675 2.4101665 -1.4774742 1.0602497e-38
7.0677891 2.4093766 -1.4310842 1.1893236e-38
7.0737395 2.408437 -1.393273 1.1985432e-38
7.0447216 2.4076121 -1.3502361 1.0879084e-38
7.0328507 2.4067373 -1.3100402 1.0325911e-38
6.9685221 2.4060524 -1.2627521 1.0694693e-38
7.0084395 2.4050038 -1.2301109 1.1432258e-38
3.9621084 2.4156179 -0.80185109 1.2354214e-38
7.0005937 2.4032228 -1.1529481 1.244641e-38
6.935256 2.4025834 -1.1072911 1.2999584e-38
3.9873381 2.4139545 -0.73913062 1.2815193e-38
7.0134888 2.4004617 -1.0405122 1.3644953e-38
6.9824181 2.3996973 -0.99943846 1.4013736e-38
7.0211029 2.3986251 -0.96544826 1.3183975e-38
4.0311522 2.4116681 -0.65553594 1.3276171e-38
4.0681124 2.4109664 -0.63663232 1.3460562e-38
4.0699453 2.4104285 -0.61453342 1.3460562e-38
4.0891914 2.4098027 -0.59374279 1.4105931e-38
4.0732646 2.4093542 -0.57030827 1.2169823e-38
4.1449151 2.408447 -0.55271935 1.4198127e-38
4.1287608 2.4079976 -0.52917731 1.3183975e-38
4.1300306 2.4074559 -0.50676227 1.3183975e-38
4.166296 2.4067161 -0.48605782 1.4751301e-38
4.1497784 2.4062731 -0.46268037 1.392154e-38
4.2209587 2.4053159 -0.44285458 1.1985432e-38
4.2042065 2.4048719 -0.41937542 1.2722997e-38
4.2400417 2.4041085 -0.39754826 1.3460562e-38
4.2230468 2.4036684 -0.37415376 1.3368366e-38
4.2410784 2.403008 -0.35155389 1.4382518e-38
4.2589922 2.402344 -0.32876793 1.2815193e-38
4.2767878 2.4016762 -0.30579647 1.4290323e-38
4.3471961 2.4006472 -0.28273216 1.3183975e-38
4.3999043 2.3997231 -0.25899285 1.3552758e-38
4.4349089 2.3989103 -0.23485529 1.4659105e-38
4.4522085 2.3982153 -0.21059616 1.3829344e-38
4.416656 2.3979011 -0.18716685 1.4382518e-38
4.4512744 2.3970757 -0.16239053 1.5304475e-38
4.4857583 2.3962426 -0.13724935 1.4474714e-38
4.5025373 2.3955362 -0.11235735 1.4474714e-38
4.6069989 2.3941431 -0.083759658 1.3460562e-38
4.5532498 2.3939748 -0.061238531 1.2907388e-38
4.657393 2.3925514 -0.031273026 1.4290323e-38
4.6033964 2.3923914 -0.0090401378 1.3276171e-38
4.7247481 2.3907926 0.023362422 1.3737149e-38
4.8809657 2.38887 0.059371889 1.2907388e-38
4.8265438 2.3887048 0.081947491 1.4013736e-38
4.8771796 2.3876433 0.11205185 1.2999584e-38
5.102819 2.3850322 0.15709524 1.3183975e-38
5.0829692 2.3845501 0.18306862 1.3368366e-38
5.0804949 2.3839157 0.21046938 1.244641e-38
5.1478505 2.3826416 0.2447162 1.2907388e-38
5.3024111 2.3805404 0.28871331 1.3368366e-38
5.4042273 2.378896 0.32864875 1.2354214e-38
5.3835211 2.3783932 0.35573992 1.1432258e-38
5.5546751 2.3760414 0.40551907 1.1432258e-38
5.533586 2.3755269 0.43321407 1.1985432e-38
5.7041039 2.3731172 0.48560387 1.097128e-38
5.6612148 2.4464009 -1.5224187 8.3898023e-39
7.5514684 2.4423623 -1.8436058 8.6663892e-39
7.4043746 2.4415987 -1.7725455 9.0351717e-39
7.3948383 2.4406536 -1.7296668 8.9429761e-39
5.7782087 2.4424968 -1.3861359 9.4961499e-39
7.2193904 2.4390671 -1.6160387 9.4961499e-39
7.2089872 2.4381564 -1.5744017 8.8507805e-39
7.2156773 2.4372139 -1.5358731 9.5883455e-39
7.1007719 2.4365435 -1.4772067 9.3117586e-39
7.0548844 2.4357405 -1.4309026 1.0141519e-38
7.0955667 2.4347351 -1.3985628 9.6805411e-39
7.0491829 2.4339485 -1.3528326 1.2262019e-38
7.0373158 2.4330804 -1.3126352 1.1616649e-38
7.0426373 2.4321675 -1.2750086 9.219563e-39
6.995491 2.4314113 -1.2303768 1.3644953e-38
7.0003819 2.430506 -1.1929703 1.2815193e-38
7.0050774 2.4296014 -1.1555386 1.3737149e-38
6.9921188 2.4287562 -1.1160307 1.2262019e-38
6.9964108 2.427855 -1.0786432 1.456691e-38
6.9830289 2.4270179 -1.0393647 1.4751301e-38
7.0218959 2.4259896 -1.005581 1.3644953e-38
7.025609 2.4250886 -0.96803904 1.4382518e-38
6.9941149 2.4243276 -0.92728925 1.1985432e-38
6.9974189 2.4234324 -0.88989377 1.2169823e-38
4.0744796 2.4349093 -0.61683059 1.4198127e-38
4.0937276 2.4343052 -0.59604174 1.5027888e-38
4.1479435 2.4335403 -0.57751572 1.2077628e-38
4.149457 2.4330049 -0.55502343 1.5581061e-38
4.1333051 2.4325526 -0.53147954 1.2999584e-38
7.1535411 2.4173985 -0.67282039 1.3737149e-38
4.1708455 2.4313142 -0.48836339 1.3368366e-38
4.1718912 2.4307787 -0.46575236 1.4843496e-38
4.2079482 2.4300609 -0.44448882 1.392154e-38
4.2790365 2.4291472 -0.42402163 1.3183975e-38
4.2621727 2.4286966 -0.40035272 1.4105931e-38
4.2276096 2.4283488 -0.37646392 1.4474714e-38
4.2456436 2.4277098 -0.35386562 1.4382518e-38
4.2987137 2.4268625 -0.33151406 1.3460562e-38
4.3340912 2.4261072 -0.30848455 1.4474714e-38
4.299037 2.425771 -0.28495651 1.3644953e-38
4.3341708 2.4250088 -0.26155788 1.3737149e-38
4.4394889 2.4237945 -0.23718509 1.3737149e-38
4.4040632 2.4234605 -0.21365833 1.5857648e-38
4.4212418 2.4227901 -0.18949443 1.5120083e-38
4.455864 2.4219987 -0.16472128 1.5120083e-38
4.4903502 2.4211998 -0.13958329 1.5673257e-38
4.559833 2.4201498 -0.112858 1.5673257e-38
4.5589066 2.4195788 -0.088215634 1.4013736e-38
4.5578513 2.4190087 -0.063578427 1.4382518e-38
4.6795535 2.4175432 -0.03273556 1.456691e-38
4.6782055 2.41696 -0.0074675507 1.4198127e-38
4.7118154 2.4161134 0.019935284 1.4935692e-38
4.9206605 2.4139149 0.059326638 1.3183975e-38
4.7610321 2.4145343 0.074563056 1.4474714e-38
5.1271658 2.4110334 0.12853238 1.3829344e-38
5.1074481 2.4105415 0.15470318 1.3552758e-38
5.0876017 2.4100549 0.18067873 1.4198127e-38
5.0851302 2.4094288 0.20807996 1.3368366e-38
5.1175032 2.40851 0.23889418 1.4382518e-38
5.3070564 2.4062419 0.28630275 1.2999584e-38
5.3215036 2.4054413 0.31674758 1.2815193e-38
5.3008518 2.4049442 0.34338379 1.2907388e-38
5.541882 2.4021225 0.40100572 1.3368366e-38
5.53825 2.401448 0.43078202 1.3276171e-38
5.5518932 2.4006152 0.46280065 1.1432258e-38
7.3326178 2.4668064 -1.746868 9.3117586e-39
7.288455 2.4659324 -1.6977316 8.8507805e-39
7.2785454 2.4650335 -1.6555424 9.1273674e-39
7.1819139 2.4642444 -1.5978382 9.7727368e-39
7.1887627 2.463342 -1.5594299 9.219563e-39
7.1260953 2.4625409 -1.5091852 9.957128e-39
7.1324806 2.4616475 -1.4710703 9.8649324e-39
7.069231 2.4608727 -1.4218477 9.6805411e-39
7.0577869 2.4600201 -1.3813539 9.3117586e-39
7.0635037 2.4591384 -1.3435982 9.0351717e-39
7.0342226 2.458329 -1.3008217 1.1432258e-38
7.0221052 2.4574902 -1.2607858 1.1247867e-38
6.992341 2.4566965 -1.2185917 1.2907388e-38
6.9972062 2.455827 -1.1811808 1.2630801e-38
7.0018754 2.454958 -1.1437451 1.2722997e-38
6.9888892 2.4541359 -1.1042457 1.3183975e-38
6.993156 2.4532702 -1.0668544 1.4013736e-38
6.9972267 2.4524047 -1.0294412 1.4843496e-38
7.0185905 2.4514871 -0.99377257 1.2722997e-38
7.0222778 2.4506209 -0.9562273 1.392154e-38
7.0432754 2.4496982 -0.92024517 1.1155671e-38
7.011548 2.4489493 -0.87959093 1.1616649e-38
4.0708933 2.4583924 -0.60711581 1.1985432e-38
4.0901275 2.4578214 -0.58631277 1.3091779e-38
7.0903716 2.4461026 -0.77188456 1.0418106e-38
7.1279798 2.4450989 -0.73621297 1.0418106e-38
4.1296606 2.4561551 -0.52172112 1.2262019e-38
4.1484699 2.4555712 -0.50024432 1.3091779e-38
4.2022862 2.4548354 -0.48027274 1.1063476e-38
4.1857634 2.454392 -0.45672098 1.244641e-38
4.2042441 2.4537966 -0.43467551 1.2538606e-38
7.314693 2.4390771 -0.51308924 1.2630801e-38
7.5442867 2.4371192 -0.48023877 1.0694693e-38
4.259006 2.4519894 -0.36741111 1.1616649e-38
4.2418771 2.4515529 -0.3440237 1.2630801e-38
4.4003925 2.4502351 -0.32285723 1.3091779e-38
4.312716 2.45015 -0.2984668 1.4290323e-38
4.3655338 2.4493442 -0.27515471 1.4751301e-38
4.3303409 2.4490008 -0.25165108 1.3829344e-38
4.418066 2.447988 -0.22736689 1.5304475e-38
4.4002004 2.4475491 -0.2037008 1.4935692e-38
4.4349365 2.4468119 -0.17917599 1.3644953e-38
4.4519672 2.4461701 -0.15472586 1.3644953e-38
4.4864373 2.44542 -0.12956278 1.5488866e-38
4.503201 2.4447694 -0.10465978 1.4198127e-38
4.5549579 2.4438972 -0.078145273 1.4013736e-38
4.5538855 2.4433472 -0.053508356 1.3368366e-38
4.6229029 2.4423447 -0.02527781 1.4751301e-38
4.709301 2.4412112 0.0046729511 1.4013736e-38
4.6902485 2.440763 0.029033106 1.3368366e-38
4.7412276 2.4398415 0.057903178 1.3460562e-38
4.7569718 2.439152 0.084780641 1.4290323e-38
5.0529695 2.4364824 0.13357598 1.3644953e-38
4.9106393 2.4368844 0.14921126 1.2815193e-38
4.908371 2.4362988 0.17570712 1.3460562e-38
5.0109735 2.4349365 0.21199499 1.2169823e-38
5.0258675 2.4342093 0.24074085 1.3552758e-38
5.1455021 2.4326773 0.28055897 1.4198127e-38
5.334753 2.4305754 0.32927805 1.3091779e-38
5.2966089 2.4302201 0.35399136 1.2538606e-38
5.5550532 2.4274998 0.41387773 1.2262019e-38
5.5165062 2.427129 0.4393777 1.2262019e-38
5.6695776 2.4251869 0.48950836 1.1708845e-38
5.7177691 2.4240844 0.52706856 8.3898023e-39
7.3382521 2.4918237 -1.7525247 8.2976067e-39
7.2422562 2.4909883 -1.6935223 9.4039542e-39
7.2495465 2.4901242 -1.65482 9.3117586e-39
7.2220359 2.4892819 -1.609843 9.8649324e-39
7.1942577 2.4884477 -1.5651917 8.4819979e-39
7.114222 2.4876666 -1.5120564 9.0351717e-39
7.1552563 2.4867873 -1.4797194 9.0351717e-39
7.0919857 2.4860139 -1.4304528 9.957128e-39
7.0631504 2.4852147 -1.3872111 8.5741936e-39
7.0862279 2.4843552 -1.3520241 8.7585848e-39
7.0395265 2.4835918 -1.306695 1.1247867e-38
7.0273795 2.4827867 -1.2666675 1.1155671e-38
6.9975839 2.4820149 -1.2244948 1.1524454e-38
7.0024219 2.4811895 -1.1870795 1.3552758e-38
7.0070634 2.4803643 -1.1496392 1.1616649e-38
6.9940481 2.4795747 -1.1101489 1.1801041e-38
6.9982867 2.4787524 -1.0727534 1.392154e-38
7.0023298 2.4779305 -1.0353364 1.5673257e-38
7.0061769 2.4771092 -0.99789864 1.3460562e-38
7.0273275 2.4762452 -0.96210164 1.2815193e-38
7.0482984 2.4753776 -0.92610264 1.1616649e-38
7.0690885 2.4745064 -0.88990283 1.2077628e-38
7.0721726 2.473681 -0.85211748 1.3276171e-38
7.0750594 2.472856 -0.81431651 1.2262019e-38
4.1490827 2.4808977 -0.57580298 1.0879084e-38
7.1328669 2.4710429 -0.74200177 1.0510302e-38
7.1527243 2.4701567 -0.70490265 1.2077628e-38
4.1531725 2.4794292 -0.50829482 1.2077628e-38
4.2420907 2.4786351 -0.48995051 1.0694693e-38
4.1904335 2.4783261 -0.46474206 1.1247867e-38
7.3180742 2.4662533 -0.55781502 1.244641e-38
7.3194156 2.4654078 -0.5187307 1.2169823e-38
4.2630601 2.4765759 -0.39846417 1.097128e-38
4.2636104 2.4760773 -0.37537438 1.1893236e-38
4.2640405 2.4755795 -0.35228202 1.1155671e-38
4.4049644 2.4744821 -0.33071193 1.2077628e-38
4.2996922 2.4744313 -0.30628911 1.2354214e-38
4.3349156 2.473773 -0.28302178 1.2538606e-38
4.3700156 2.4731073 -0.25938633 1.1247867e-38
4.4225674 2.4723516 -0.23520586 1.3460562e-38
4.404685 2.4719241 -0.2115528 1.4198127e-38
4.4394031 2.4712405 -0.187001 1.3276171e-38
4.4739876 2.4705496 -0.16208379 1.3552758e-38
4.4908667 2.4699423 -0.13734744 1.4751301e-38
4.5603123 2.4690537 -0.11051861 1.4474714e-38
4.55935 2.4685287 -0.085876584 1.3644953e-38
4.5758185 2.4679079 -0.060418531 1.2630801e-38
4.6448107 2.4669878 -0.032042906 1.3737149e-38
4.7136331 2.4660532 -0.0029389609 1.3276171e-38
4.6945624 2.465616 0.021407258 1.3460562e-38
4.7630577 2.4646614 0.05150564 1.1340062e-38
4.7612448 2.4641175 0.077206872 1.2722997e-38
5.0572076 2.4617329 0.1262286 1.3368366e-38
4.914865 2.4620399 0.14175594 1.2815193e-38
5.0876651 2.4603591 0.18380834 1.3368366e-38
5.0676541 2.4598961 0.20955969 1.2538606e-38
5.0825005 2.4592056 0.23859231 1.2999584e-38
5.1146674 2.4583945 0.26962438 1.2999584e-38
5.164124 2.4574566 0.30292943 1.1893236e-38
5.2308369 2.4563863 0.3387807 1.2354214e-38
5.5590854 2.4534459 0.40691897 1.2262019e-38
5.7297993 2.4515648 0.45874429 1.2262019e-38
5.7258396 2.450922 0.48950085 1.2907388e-38
5.7217188 2.4502802 0.52023625 1.0786889e-38
7.2572527 2.5379338 -1.6126034 8.8507805e-39
7.2641373 2.5371597 -1.5738249 8.7585848e-39
7.1841631 2.5363717 -1.5203278 8.4819979e-39
7.1558728 2.5356045 -1.4762414 8.2976067e-39
7.1446838 2.5348437 -1.4352404 8.3898023e-39
7.1506414 2.5340838 -1.3970535 1.0233715e-38
7.0575433 2.5326023 -1.3056967 9.4961499e-39
7.0628238 2.5318534 -1.2679677 1.1155671e-38
7.033052 2.5311246 -1.2256122 1.0418106e-38
7.0204744 2.5303912 -1.185804 1.1432258e-38
7.0076771 2.5296617 -1.1461536 1.2630801e-38
7.0121226 2.5289204 -1.1086879 1.1063476e-38
6.9988999 2.5281968 -1.069265 1.2907388e-38
7.002943 2.5274577 -1.0318462 1.3276171e-38
7.0067897 2.5267191 -0.99440664 1.4935692e-38
7.0104403 2.5259805 -0.95694751 1.5027888e-38
7.0314031 2.5252178 -0.92103779 1.1524454e-38
7.0346689 2.524478 -0.88345081 1.1155671e-38
7.0552616 2.5237105 -0.84723186 1.1708845e-38
7.0756712 2.5229397 -0.81081384 1.244641e-38
7.0783591 2.5221972 -0.77299654 1.0325911e-38
7.1159358 2.5213883 -0.73738432 1.0694693e-38
7.1357875 2.5206079 -0.70037466 1.0879084e-38
7.190558 2.5197501 -0.66502076 1.1155671e-38
7.2275972 2.5189207 -0.62827122 1.1432258e-38
7.17664 2.5182877 -0.58743602 1.0694693e-38
7.3538179 2.5171146 -0.55559063 9.957128e-39
7.3200269 2.5164366 -0.51520514 1.0141519e-38
7.3211637 2.5156744 -0.47611263 1.1247867e-38
7.4451141 2.5145781 -0.43963137 1.1063476e-38
7.5864601 2.5134077 -0.40213943 9.7727368e-39
4.247366 2.5223792 -0.3255938 8.7585848e-39
4.4057531 2.5214536 -0.30346915 9.1273674e-39
4.3003535 2.5213206 -0.27960122 1.1340062e-38
4.3178763 2.520812 -0.2562336 9.6805411e-39
4.3880076 2.5201249 -0.23214765 1.0325911e-38
4.4228554 2.5195446 -0.20786744 1.097128e-38
4.4048486 2.5191436 -0.18430807 1.2630801e-38
4.4218655 2.5186191 -0.16002664 1.2169823e-38
4.4738913 2.5179601 -0.13447191 1.1432258e-38
4.473074 2.517493 -0.11028402 1.2538606e-38
4.5248184 2.5168192 -0.0839101 1.2262019e-38
4.5588536 2.516206 -0.05781199 1.2354214e-38
4.5751877 2.5156591 -0.032266319 1.3183975e-38
4.6440301 2.5148854 -0.0035257675 1.2262019e-38
4.7126994 2.5140984 0.025942214 1.1893236e-38
4.6759639 2.5137661 0.048998881 1.3460562e-38
4.7267761 2.5130422 0.078086399 1.1985432e-38
4.7774153 2.5123086 0.1077148 1.1247867e-38
4.7753253 2.5118148 0.1334884 1.3183975e-38
4.8081183 2.5111518 0.16236386 1.2630801e-38
4.9107442 2.5101349 0.19818671 1.2815193e-38
4.9606543 2.5093637 0.22987649 1.1616649e-38
5.0103683 2.5085824 0.26210174 1.1708845e-38
5.0598841 2.5077915 0.29486132 1.2538606e-38
5.3187413 2.5058653 0.35232544 1.2077628e-38
5.5422301 2.5040789 0.40830338 1.1247867e-38
5.3118348 2.504777 0.40951571 1.244641e-38
5.4650116 2.5033431 0.45867741 1.1985432e-38
5.5655704 2.5021808 0.50232273 1.1616649e-38
5.7180333 2.5006917 0.55445266 8.5741936e-39
7.3637261 2.5703185 -1.7031031 8.3898023e-39
7.2569661 2.5686619 -1.60286 8.8507805e-39
7.2637434 2.5679631 -1.5640612 9.1273674e-39
7.2009611 2.5671413 -1.5136746 8.6663892e-39
7.143908 2.5656455 -1.4258072 9.4039542e-39
7.1497602 2.5649583 -1.3876027 9.7727368e-39
7.1554122 2.5642707 -1.3493679 8.6663892e-39
7.1260457 2.5635383 -1.3062373 8.9429761e-39
7.0964289 2.5628119 -1.2634436 9.8649324e-39
7.0491314 2.5620728 -1.2187368 9.8649324e-39
7.0539002 2.5613956 -1.1810311 9.6805411e-39
7.0061035 2.5606709 -1.137096 1.097128e-38
7.0628452 2.5600412 -1.1055478 1.0325911e-38
6.9971142 2.5593133 -1.06023 1.1524454e-38
7.0010538 2.5586421 -1.0227989 1.1801041e-38
7.0047975 2.557971 -0.98534769 1.3737149e-38
7.0083451 2.5572996 -0.94787735 1.244641e-38
7.0116959 2.5566282 -0.91038895 1.0141519e-38
7.0674105 2.55597 -0.87716579 1.0233715e-38
7.0703907 2.5552936 -0.83936906 1.0602497e-38
7.0556383 2.554616 -0.80031347 1.1063476e-38
7.1459179 2.5539386 -0.76833987 1.1616649e-38
7.1483269 2.5532556 -0.73013371 1.0786889e-38
7.2031898 2.5525613 -0.69482052 9.957128e-39
7.2403255 2.5518625 -0.65806848 1.0510302e-38
7.2245951 2.5511785 -0.61858499 1.1616649e-38
7.2086544 2.5504978 -0.57927644 1.0049324e-38
7.3330474 2.5497377 -0.54494882 1.0879084e-38
7.3869958 2.5490026 -0.50729203 1.1340062e-38
7.4056077 2.5482852 -0.46824396 1.0602497e-38
7.4415917 2.5475492 -0.42933172 9.6805411e-39
8.1633224 2.545372 -0.35559565 8.6663892e-39
4.2963886 2.5486255 -0.27809438 8.7585848e-39
4.3839121 2.5476713 -0.23039439 9.4961499e-39
4.3659663 2.547276 -0.20697451 8.3898023e-39
4.4006209 2.5467989 -0.18250644 1.0602497e-38
4.4351416 2.5463154 -0.15767331 1.0325911e-38
4.4695258 2.5458257 -0.13247585 1.0418106e-38
4.4686422 2.5453961 -0.10828961 8.6663892e-39
4.5554357 2.5447922 -0.080211535 1.1432258e-38
4.6771722 2.5440993 -0.049477279 1.0510302e-38
4.5880923 2.5438418 -0.02902104 1.1340062e-38
4.6393037 2.5432825 -0.0010503427 1.0510302e-38
4.672811 2.5427551 0.026316721 1.1985432e-38
4.7587643 2.5420926 0.057758566 1.2354214e-38
4.8795733 2.5413244 0.092769809 1.097128e-38
4.7548618 2.5411825 0.10914405 1.1524454e-38
5.0329123 2.5399609 0.15904367 1.1985432e-38
4.8204389 2.5400755 0.16690823 1.1616649e-38
4.8704705 2.5394616 0.1980191 1.1432258e-38
5.0776916 2.5383635 0.24576519 1.0602497e-38
5.0223866 2.538043 0.26748919 1.1708845e-38
5.0718017 2.5373964 0.30047959 1.1616649e-38
5.3130336 2.5361066 0.35669756 1.1247867e-38
5.2397943 2.5358388 0.37667486 1.0510302e-38
5.5500445 2.5342453 0.4453119 1.1893236e-38
5.5112762 2.5338438 0.47047275 9.8649324e-39
5.629087 2.5328724 0.5171023 9.4039542e-39
7.3453317 2.6233299 -1.6671326 8.6663892e-39
7.3178024 2.6225371 -1.6217633 9.4961499e-39
7.3246489 2.6218677 -1.5826956 1.0786889e-38
7.2336116 2.6201921 -1.4876176 8.6663892e-39
7.2223897 2.6194756 -1.446277 9.3117586e-39
7.1761751 2.6186564 -1.399838 1.0325911e-38
7.1470718 2.617897 -1.3564479 9.5883455e-39
7.1699386 2.6172919 -1.32072 1.0141519e-38
7.1403704 2.616539 -1.2777281 1.0879084e-38
7.1105528 2.615792 -1.2350742 1.1616649e-38
7.0630455 2.6150062 -1.1905909 1.1340062e-38
7.067637 2.6143587 -1.1528629 1.1340062e-38
7.0720315 2.6137106 -1.1151114 1.0510302e-38
7.0063252 2.6129019 -1.0697596 9.7727368e-39
7.0452557 2.6123362 -1.0359358 1.2354214e-38
7.0490375 2.6116898 -0.99830306 1.2999584e-38
7.0351195 2.6110079 -0.95903116 1.2538606e-38
7.0209875 2.6103287 -0.91992438 1.2815193e-38
7.0592012 2.6097488 -0.88529295 1.3091779e-38
7.149827 2.6092541 -0.8543123 1.1985432e-38
7.11759 2.6085401 -0.81362885 1.1524454e-38
7.1552863 2.6079416 -0.77794248 1.1063476e-38
7.1577158 2.607285 -0.73973721 1.1708845e-38
7.2125978 2.6067009 -0.70445168 1.0510302e-38
7.1619749 2.6059709 -0.66329104 1.097128e-38
7.2516046 2.6054189 -0.62901992 1.2907388e-38
7.2708173 2.604773 -0.59101397 1.2999584e-38
7.3425369 2.6041775 -0.55464488 1.2354214e-38
7.3437939 2.6035035 -0.51546234 1.1524454e-38
7.5205765 2.6029773 -0.48053032 1.0510302e-38
7.5390182 2.6023004 -0.44075036 1.0141519e-38
7.609983 2.601655 -0.40150732 8.8507805e-39
7.7334776 2.6010273 -0.36197406 8.2976067e-39
7.6809864 2.6002922 -0.32057476 8.4819979e-39
4.4103045 2.596663 -0.19069909 1.0049324e-38
4.4272676 2.5962515 -0.16637784 8.4819979e-39
4.4440999 2.5958369 -0.14187618 8.7585848e-39
4.5651746 2.5949693 -0.088482305 9.957128e-39
4.5640292 2.5945446 -0.063846193 8.9429761e-39
4.6856198 2.5940576 -0.03253692 1.0510302e-38
4.7894616 2.5935588 -0.00099447602 9.7727368e-39
4.8755612 2.5930531 0.030504318 1.0694693e-38
4.7861128 2.5926688 0.050614934 1.1340062e-38
4.7491794 2.5922546 0.073762722 1.2907388e-38
4.7647028 2.5917964 0.10077319 1.1063476e-38
5.0427809 2.5910583 0.15053113 1.1155671e-38
4.8653226 2.5907903 0.16169773 1.2077628e-38
4.9678435 2.5902085 0.19803141 1.0049324e-38
5.0876069 2.5895848 0.23723063 9.7727368e-39
5.1022263 2.5890877 0.26646867 1.1616649e-38
5.099215 2.588614 0.29391146 1.1155671e-38
5.323009 2.5877774 0.34804374 1.0141519e-38
5.2497802 2.5874016 0.36805868 9.6805411e-39
5.5600681 2.586355 0.43653774 1.1801041e-38
5.5213132 2.5859048 0.46171871 1.0233715e-38
5.726203 2.5849824 0.52038544 9.957128e-39
7.380053 2.6540647 -1.6456391 9.4039542e-39
7.3870592 2.6534131 -1.6062254 9.7727368e-39
7.3072057 2.6523521 -1.5520808 9.1273674e-39
7.2443404 2.6513855 -1.5016569 8.4819979e-39
7.2332339 2.6506658 -1.4601983 8.5741936e-39
7.2218957 2.6499481 -1.4188894 1.0602497e-38
7.1929398 2.649157 -1.3751559 1.1708845e-38
7.1985316 2.6485195 -1.3367256 1.0049324e-38
7.1342654 2.6475904 -1.2886935 1.0049324e-38
7.1394053 2.6469572 -1.2505716 1.0786889e-38
7.1094685 2.646184 -1.2080017 1.1340062e-38
7.1141868 2.6455519 -1.1700106 1.0325911e-38
7.1187053 2.6449194 -1.1319953 1.0325911e-38
7.0356703 2.643961 -1.0842739 1.0141519e-38
7.0747027 2.6434612 -1.0503612 1.0602497e-38
7.0960855 2.6428928 -1.0143079 1.1801041e-38
7.0472918 2.6420791 -0.97140354 1.2538606e-38
7.0157557 2.6413326 -0.93060052 1.2630801e-38
7.1241164 2.6410506 -0.90197587 1.1063476e-38
7.1097083 2.6403584 -0.8625254 1.1432258e-38
7.1476774 2.639832 -0.82712823 1.1247867e-38
7.1679368 2.6392457 -0.79014575 1.1247867e-38
7.1002941 2.6383998 -0.74740815 1.1247867e-38
7.1727939 2.6379631 -0.71355027 1.1616649e-38
7.2100286 2.6374173 -0.67709023 1.0602497e-38
7.2470808 2.6368647 -0.64025182 1.0233715e-38
7.2839484 2.6363053 -0.60303611 1.1893236e-38
7.303062 2.6356957 -0.56479204 1.0786889e-38
7.3922544 2.6352506 -0.52859664 1.1063476e-38
7.4812698 2.6347895 -0.4914749 1.1247867e-38
7.5701008 2.6343122 -0.45342761 1.0879084e-38
7.5357089 2.6335578 -0.41246736 8.8507805e-39
4.6474538 2.6219201 -0.039396901 8.4819979e-39
4.8709478 2.6208048 0.05127351 1.0602497e-38
4.7814441 2.6203041 0.071131833 8.7585848e-39
4.8846421 2.6199217 0.10514339 1.0510302e-38
4.7598934 2.6194196 0.12122975 9.5883455e-39
5.0553398 2.6190879 0.17332678 1.0510302e-38
4.9627614 2.6181452 0.2190613 8.3898023e-39
4.9950004 2.6176925 0.24945253 9.4961499e-39
5.0095873 2.6172335 0.27827436 9.0351717e-39
5.2965422 2.6157715 0.39646903 1.0233715e-38
5.2928824 2.6152847 0.42494678 1.0233715e-38
5.7070723 2.6146092 0.51046169 8.7585848e-39
5.7202144 2.6140757 0.54355562 8.2054111e-39
7.3249741 2.6697628 -1.5886271 9.1273674e-39
7.314291 2.669064 -1.5466231 1.0233715e-38
7.320725 2.6684403 -1.507578 9.3117586e-39
7.2748561 2.6676011 -1.4603378 9.219563e-39
7.2286987 2.6667697 -1.4136113 1.0233715e-38
7.2170434 2.6660836 -1.3724774 1.1063476e-38
7.2051601 2.6653993 -1.3314962 1.0510302e-38
7.2104692 2.6647832 -1.2930254 1.0879084e-38
7.1284194 2.6638451 -1.2432016 1.1063476e-38
7.0983806 2.6631091 -1.200786 1.0602497e-38
7.1379156 2.6626234 -1.1670408 1.0325911e-38
7.1074343 2.6618919 -1.1249422 1.2262019e-38
7.0941882 2.6612239 -1.0850862 9.957128e-39
7.1506624 2.6607859 -1.0526241 1.1063476e-38
7.1020298 2.6600058 -1.0092927 1.2354214e-38
7.1056528 2.6593957 -0.97136623 1.2077628e-38
7.0390334 2.6585751 -0.92728806 1.1801041e-38
7.1123033 2.6581738 -0.89545894 1.097128e-38
7.1153297 2.657562 -0.85748023 1.0418106e-38
7.2058229 2.6571898 -0.8257767 1.0786889e-38
7.0857086 2.6562436 -0.77914536 1.1432258e-38
7.1758528 2.6558585 -0.74667972 1.0879084e-38
7.1780992 2.6552401 -0.70837039 1.1524454e-38
7.2152567 2.6547055 -0.67183119 1.0879084e-38
7.2873507 2.6542456 -0.63651162 1.1524454e-38
7.2890196 2.6536169 -0.59762007 1.2077628e-38
7.3080511 2.6530254 -0.55933523 1.1432258e-38
7.4147372 2.6526113 -0.52347362 9.6805411e-39
7.5739675 2.652283 -0.48779473 1.0233715e-38
7.6275778 2.6517282 -0.44842139 1.0418106e-38
7.6106801 2.6510372 -0.40750438 9.6805411e-39
7.6814551 2.6505001 -0.36754268 8.4819979e-39
5.0587664 2.6375742 0.17403239 8.9429761e-39
4.86375 2.6371255 0.18273132 8.4819979e-39
7.6268339 2.7292061 -1.8048866 8.8507805e-39
7.6173077 2.7285175 -1.7609621 9.219563e-39
7.4000206 2.7265074 -1.6793532 8.9429761e-39
7.3898067 2.7258368 -1.6367991 9.4039542e-39
7.379355 2.7251675 -1.5943897 9.6805411e-39
7.3166447 2.7241802 -1.5434859 1.0694693e-38
7.2709646 2.7233074 -1.4960637 9.8649324e-39
7.242363 2.7225447 -1.4518524 1.1432258e-38
7.2482691 2.7219911 -1.4131886 1.2722997e-38
7.253973 2.721436 -1.3744941 1.1708845e-38
7.1898351 2.7204807 -1.3260694 1.2262019e-38
7.1950831 2.7199285 -1.2876819 1.2815193e-38
7.130394 2.7189865 -1.2402964 1.1893236e-38
7.170085 2.7186294 -1.2065246 1.1801041e-38
7.1048808 2.7176983 -1.1600018 1.1985432e-38
7.0917935 2.7170565 -1.1200929 1.244641e-38
7.0959644 2.7165082 -1.0822217 1.1985432e-38
7.1698852 2.7163212 -1.0514723 1.2538606e-38
7.1212072 2.7154977 -1.0081108 1.2999584e-38
7.1247916 2.7149451 -0.97008735 1.3368366e-38
7.1807151 2.7146511 -0.93657821 1.2999584e-38
7.1839237 2.7140925 -0.89824414 1.1432258e-38
7.2044597 2.7136168 -0.86122125 1.2354214e-38
7.1546702 2.7128069 -0.81905699 1.2722997e-38
7.2098861 2.7124918 -0.7842924 1.1985432e-38
7.212297 2.7119279 -0.74580771 1.1616649e-38
7.2145071 2.7113633 -0.70731097 1.1801041e-38
7.2867408 2.7111063 -0.67227596 1.2630801e-38
7.3061247 2.7106102 -0.63416684 1.2999584e-38
7.3077488 2.710036 -0.59518039 1.2538606e-38
7.5024157 2.7102656 -0.56270188 1.2999584e-38
7.5036626 2.7096748 -0.52268881 1.2538606e-38
7.5749927 2.7093647 -0.48430324 1.2722997e-38
7.698854 2.7092502 -0.44612581 1.1432258e-38
7.6819105 2.7085741 -0.40486157 8.2976067e-39
7.6647511 2.7079 -0.36377865 1.0325911e-38
8.0007706 2.7611022 -2.0662842 8.2054111e-39
7.9754705 2.7602696 -2.0163803 8.7585848e-39
7.9756904 2.7590008 -1.9278353 8.4819979e-39
7.9668117 2.758302 -1.881956 8.8507805e-39
7.5604005 2.7546968 -1.7612433 8.2976067e-39
7.4367609 2.7526155 -1.6558706 9.4039542e-39
7.4437199 2.7520781 -1.6161665 9.0351717e-39
7.3637853 2.7509317 -1.5619408 1.0325911e-38
7.2834926 2.7497964 -1.5085883 9.8649324e-39
7.2896833 2.7492671 -1.4696888 9.957128e-39
7.2782888 2.7486186 -1.4281328 1.1708845e-38
7.2318754 2.7477381 -1.3816612 9.219563e-39
7.219995 2.7470944 -1.3405912 1.0233715e-38
7.1904664 2.7463377 -1.2973241 1.1616649e-38
7.1955519 2.7458103 -1.2589146 1.244641e-38
