# .PCD v0.7 - Point Cloud Data file format
VERSION 0.7
FIELDS x y z rgb
SIZE 4 4 4 4
TYPE F F F F
COUNT 1 1 1 1
WIDTH 1040
HEIGHT 1
VIEWPOINT 21.0984 3.44 5.75921 0.372931 0.0328241 0.092495 0.922653
POINTS 1040
DATA ascii
5.9689264 -1.2759204 1.124797 1.1155671e-38
6.1546535 -1.2914381 1.1866668 9.7727368e-39
6.1321435 -1.2896404 1.2183883 9.7727368e-39
6.0402861 -1.2820737 1.2388284 9.219563e-39
6.1039567 -1.2874444 1.2840606 8.4819979e-39
6.063714 -1.2841703 1.3122923 9.8649324e-39
6.0923705 -1.286629 1.3522919 9.4039542e-39
7.9221425 -1.4886757 -1.5210812 8.9429761e-39
7.9481959 -1.4908404 -1.4808033 1.0141519e-38
7.9740548 -1.4929876 -1.4402989 1.0694693e-38
7.9653139 -1.492113 -1.3930043 9.0351717e-39
7.9390888 -1.4897122 -1.3426551 9.7727368e-39
7.9125686 -1.4872866 -1.2926254 1.1063476e-38
7.9030085 -1.4863423 -1.2459278 1.0510302e-38
7.9104571 -1.4868828 -1.2022918 1.0325911e-38
7.9003954 -1.4858954 -1.1557881 1.097128e-38
7.8900766 -1.4848859 -1.1094289 1.2262019e-38
7.8968139 -1.4853648 -1.0658629 1.2815193e-38
7.9033241 -1.4858239 -1.022262 1.4290323e-38
7.9096065 -1.486263 -0.97862762 1.1247867e-38
7.8809586 -1.4836566 -0.9302128 1.0602497e-38
7.9214878 -1.4870819 -0.89126283 1.2722997e-38
7.8923373 -1.4844325 -0.84315193 1.2722997e-38
7.8281398 -1.4787295 -0.79117757 1.2077628e-38
7.8332181 -1.4790651 -0.74794167 1.2077628e-38
7.7336268 -1.4702809 -0.69317645 1.392154e-38
8.0342855 -1.4963676 -0.68147588 1.097128e-38
8.0736408 -1.4996864 -0.64062655 1.1893236e-38
8.1651068 -1.5075425 -0.60431534 1.2262019e-38
8.204092 -1.5108265 -0.56241298 1.1155671e-38
8.2254248 -1.5125726 -0.51866376 1.1247867e-38
8.3862057 -1.5264575 -0.4856509 1.0418106e-38
8.3896828 -1.5266469 -0.43948659 1.1432258e-38
8.3929195 -1.5268153 -0.39330468 1.1247867e-38
8.4308701 -1.5300044 -0.34929046 1.0602497e-38
8.3637009 -1.524047 -0.29889286 1.0510302e-38
8.3836927 -1.5256734 -0.25375783 1.0510302e-38
8.3859606 -1.5257578 -0.20761012 1.1801041e-38
8.3354969 -1.5212564 -0.15927818 1.2999584e-38
8.3547726 -1.5228204 -0.11401756 1.1893236e-38
8.2862968 -1.516755 -0.06586238 1.2077628e-38
8.2175598 -1.5106688 -0.018435828 1.2999584e-38
8.3236523 -1.5197787 0.024697004 1.2907388e-38
8.2369175 -1.5121299 0.071846738 1.1708845e-38
8.3250456 -1.5196761 0.11635665 1.2077628e-38
8.3078709 -1.5180724 0.16227089 1.2169823e-38
8.3605061 -1.5225325 0.20804921 1.0786889e-38
6.3464961 -1.3475124 0.24213129 1.1708845e-38
8.3599844 -1.5222626 0.30008575 1.0879084e-38
8.3243427 -1.5190558 0.34552491 1.0049324e-38
6.3450613 -1.3471283 0.34842467 1.0141519e-38
6.1691542 -1.3317741 0.37913013 1.0418106e-38
6.2731676 -1.3407162 0.41701293 1.1708845e-38
6.2719626 -1.3405261 0.45205846 1.1155671e-38
6.2180858 -1.3357663 0.48485363 1.0786889e-38
6.1465583 -1.3294768 0.51624954 1.1432258e-38
6.1098623 -1.32621 0.54876477 1.1063476e-38
6.2128682 -1.3350587 0.58909172 1.2630801e-38
6.1583352 -1.3302454 0.62047142 1.0233715e-38
6.0337729 -1.3193625 0.64645922 1.2354214e-38
6.0488391 -1.3205856 0.68154228 1.2815193e-38
6.011342 -1.3172528 0.71262318 1.0879084e-38
6.0609488 -1.3214686 0.75073612 1.2999584e-38
6.0056796 -1.3165966 0.77993846 1.2169823e-38
6.07232 -1.3222866 0.82023656 1.2169823e-38
5.8076425 -1.2992781 0.82785732 1.1432258e-38
5.908793 -1.3079575 0.87154472 1.1801041e-38
5.9574385 -1.3120878 0.91049033 1.3460562e-38
5.9536638 -1.3116784 0.94386917 1.2999584e-38
5.9497147 -1.311254 0.97722769 1.2262019e-38
5.9803376 -1.3138218 1.0149946 1.2722997e-38
6.0107403 -1.3163695 1.0531044 1.2722997e-38
5.9368243 -1.3098905 1.0771722 1.1801041e-38
7.9778695 -1.4863781 1.4040732 1.0418106e-38
5.962009 -1.3119031 1.1488423 1.0049324e-38
6.1300855 -1.3263556 1.2089467 8.2976067e-39
7.9099584 -1.5302757 -1.6030343 8.3898023e-39
7.9285789 -1.5314752 -1.5155404 8.9429761e-39
7.9114423 -1.5289689 -1.3303491 9.957128e-39
7.9272184 -1.5299147 -1.242856 8.3898023e-39
7.8829837 -1.5256904 -1.1902224 1.0694693e-38
7.8729806 -1.5245529 -1.1437972 8.9429761e-39
7.8627195 -1.5233933 -1.0975161 1.1155671e-38
7.8695087 -1.5237696 -1.0540501 1.1340062e-38
7.9107065 -1.5272428 -1.0157061 1.1893236e-38
7.8824048 -1.5244608 -0.96701431 1.0879084e-38
7.9058566 -1.5263358 -0.9258433 1.1155671e-38
7.9117494 -1.5266309 -0.88215333 1.1708845e-38
7.8826785 -1.5237832 -0.83400548 1.2354214e-38
7.7316766 -1.5099806 -0.77133679 1.2077628e-38
7.7193756 -1.5086467 -0.72653395 1.1340062e-38
7.6546273 -1.5026038 -0.67606908 1.1985432e-38
8.0248451 -1.5356146 -0.6725139 1.0786889e-38
8.0990963 -1.5420421 -0.63522881 1.1524454e-38
8.1034698 -1.5421965 -0.59052777 1.3368366e-38
8.1773624 -1.5485861 -0.55209762 9.1273674e-39
8.2336397 -1.5533924 -0.51143134 1.1247867e-38
8.272274 -1.5566142 -0.46880481 9.4961499e-39
8.3281593 -1.5613799 -0.42709044 1.0049324e-38
8.4187803 -1.5692544 -0.3872202 1.097128e-38
8.3344936 -1.5614605 -0.33527029 1.097128e-38
8.2848663 -1.5567743 -0.28626877 1.0786889e-38
8.3573532 -1.56302 -0.24431971 1.0141519e-38
8.3596869 -1.5629851 -0.19826739 1.0418106e-38
8.3442869 -1.5613641 -0.15145667 1.1893236e-38
8.3461361 -1.5612864 -0.10547453 1.1432258e-38
8.2777481 -1.5549304 -0.057231784 1.0879084e-38
8.2090988 -1.548555 -0.0097173108 1.1616649e-38
8.3152351 -1.5577973 0.033278495 1.2077628e-38
8.228591 -1.5498177 0.080539316 1.0786889e-38
8.3167686 -1.5574503 0.1249353 1.0879084e-38
8.2996683 -1.5556823 0.17087112 1.0786889e-38
8.3173456 -1.557018 0.21660274 9.7727368e-39
6.3388224 -1.3803074 0.25325477 1.2354214e-38
8.3694897 -1.5611836 0.30879065 9.7727368e-39
6.233119 -1.3705114 0.32252797 9.219563e-39
6.3375511 -1.3796331 0.35954881 1.0049324e-38
6.1617274 -1.3637835 0.39048028 1.1247867e-38
6.2657776 -1.3728672 0.4282288 1.1340062e-38
6.072154 -1.3554446 0.45630863 9.5883455e-39
6.2457995 -1.3707187 0.49759024 1.0049324e-38
6.1393466 -1.3610629 0.52762717 1.1340062e-38
6.2600784 -1.3716191 0.56837207 1.0879084e-38
6.1707935 -1.363495 0.59838104 1.1432258e-38
6.1862316 -1.3646843 0.63401866 1.0141519e-38
6.0617232 -1.3534371 0.6603502 1.0049324e-38
6.0419011 -1.3514961 0.69304383 1.0879084e-38
6.0219159 -1.3495415 0.725541 1.0418106e-38
5.9494224 -1.3429266 0.75346041 1.0694693e-38
5.9989014 -1.3471403 0.79149443 1.1432258e-38
6.0655899 -1.3528777 0.83170635 1.0879084e-38
5.8009787 -1.329228 0.83966756 1.0602497e-38
5.8673463 -1.3349385 0.87957102 1.1616649e-38
5.9508705 -1.3421658 0.92210692 1.2722997e-38
5.9471478 -1.3416575 0.95549023 1.2262019e-38
5.9432507 -1.3411337 0.98885345 1.1155671e-38
5.9391799 -1.3405945 1.0221957 1.1063476e-38
6.0043802 -1.3461874 1.0646508 1.1616649e-38
5.947866 -1.3410053 1.0911883 1.0694693e-38
7.9716396 -1.5198607 1.413084 9.8649324e-39
5.9731293 -1.3428802 1.1630075 9.4961499e-39
7.907414 -1.3439069 -1.5605129 9.4961499e-39
7.9338112 -1.3461397 -1.5203611 8.2054111e-39
7.942821 -1.3473593 -1.4764701 8.6663892e-39
7.908463 -1.3467288 -1.3785579 9.4961499e-39
7.8822384 -1.3458765 -1.3283213 9.7727368e-39
7.8902459 -1.3470302 -1.2847027 1.1063476e-38
7.898025 -1.3481705 -1.2410424 1.0418106e-38
7.870985 -1.3472588 -1.1914053 9.4039542e-39
7.8609662 -1.3473461 -1.1449693 1.0602497e-38
7.8680158 -1.3484392 -1.1014639 1.1524454e-38
7.8748384 -1.3495189 -1.0579218 1.1524454e-38
7.864079 -1.3495567 -1.0117395 1.1524454e-38
7.8877993 -1.3516377 -0.97073257 1.2169823e-38
7.8939381 -1.3526769 -0.92708778 1.2077628e-38
7.8650646 -1.3516327 -0.87874848 1.2262019e-38
7.714087 -1.3433074 -0.81506276 1.1708845e-38
7.7194152 -1.3442829 -0.77233058 1.1616649e-38
7.8465037 -1.3525331 -0.74397296 1.1985432e-38
7.5724711 -1.3368051 -0.66909051 1.0694693e-38
8.0306511 -1.3648971 -0.67584056 1.0602497e-38
8.0876141 -1.3689941 -0.6367982 1.3368366e-38
8.1443987 -1.3730887 -0.59718257 1.0510302e-38
8.2184744 -1.3782319 -0.55859452 1.2077628e-38
8.2399349 -1.3802172 -0.51472706 9.4039542e-39
8.3136396 -1.3853562 -0.4749051 1.0510302e-38
8.369668 -1.3894389 -0.43300515 1.1340062e-38
8.3204784 -1.3871677 -0.38313898 1.1432258e-38
8.2710114 -1.3848712 -0.3338066 1.0879084e-38
8.3438721 -1.3899831 -0.29235443 1.0049324e-38
8.3464565 -1.3908397 -0.2463235 1.0141519e-38
8.331275 -1.3906163 -0.19941391 1.1524454e-38
8.333374 -1.3914421 -0.15344985 1.1340062e-38
8.247571 -1.3869106 -0.1040673 9.8649324e-39
8.2667093 -1.3887691 -0.059132759 1.097128e-38
8.3031521 -1.391688 -0.014503834 1.1616649e-38
8.304285 -1.3924521 0.031311072 1.0879084e-38
8.252552 -1.3899772 0.078072384 1.097128e-38
8.2882891 -1.3928599 0.12317787 1.0418106e-38
8.3062477 -1.3946562 0.16878405 9.6805411e-39
6.3238449 -1.2734267 0.21885663 1.0786889e-38
6.3413401 -1.275041 0.25434196 1.0694693e-38
6.3235598 -1.274483 0.28971776 9.6805411e-39
6.2705102 -1.2717446 0.32443091 1.0141519e-38
6.2172847 -1.2689871 0.35858944 1.1063476e-38
6.2515855 -1.271639 0.39430526 1.1340062e-38
6.2506199 -1.2721108 0.42935553 9.4039542e-39
6.2845387 -1.2747475 0.46561351 9.5883455e-39
6.1254258 -1.2653949 0.49454957 1.1432258e-38
6.2466245 -1.2734579 0.53447032 1.1708845e-38
6.1573162 -1.2684262 0.56508154 1.1432258e-38
6.067874 -1.2633722 0.59476453 9.957128e-39
6.0308409 -1.2615775 0.62671715 1.1063476e-38
5.9936533 -1.2597677 0.65829158 1.0418106e-38
6.148807 -1.2699962 0.70323473 1.0141519e-38
5.9538112 -1.2582964 0.72298592 1.1432258e-38
5.9686184 -1.2597367 0.75790471 1.1801041e-38
6.053144 -1.2655622 0.79909259 1.097128e-38
5.9452524 -1.2592914 0.82339841 1.0602497e-38
5.8547482 -1.2540995 0.8482967 1.1524454e-38
5.9212213 -1.2587986 0.88846087 1.1616649e-38
5.9351206 -1.2601874 0.92366529 1.3183975e-38
5.9313936 -1.2604641 0.95705092 1.1708845e-38
5.9274926 -1.2607297 0.99041677 1.097128e-38
5.9930544 -1.2654006 1.0324243 1.1340062e-38
5.9365654 -1.2623324 1.0593421 1.1063476e-38
7.9662304 -1.3918986 1.3674672 9.0351717e-39
7.8996134 -1.3970015 -1.5611451 8.2976067e-39
7.960331 -1.4014497 -1.5281643 9.7727368e-39
7.9521594 -1.4016263 -1.4805862 1.0694693e-38
7.9177914 -1.4008487 -1.3825103 8.7585848e-39
7.9088068 -1.4009652 -1.3354278 9.6805411e-39
7.8995609 -1.4010625 -1.288483 1.0418106e-38
7.8900533 -1.4011406 -1.2416779 1.2169823e-38
7.8802853 -1.4011997 -1.1950138 1.0141519e-38
7.8702598 -1.4012399 -1.148492 1.0418106e-38
7.8772988 -1.4023484 -1.1048919 1.392154e-38
7.88411 -1.4034427 -1.0612552 1.2077628e-38
7.8559909 -1.4023387 -1.0123913 1.2169823e-38
7.8970475 -1.4055883 -0.97387707 1.3644953e-38
7.8857965 -1.4055431 -0.92772418 1.3091779e-38
7.856904 -1.4043807 -0.87939924 1.3829344e-38
7.7059264 -1.3954906 -0.81578964 1.097128e-38
7.7112303 -1.3964733 -0.7730546 1.1247867e-38
7.838274 -1.4051756 -0.74463254 1.2262019e-38
8.0175409 -1.4172127 -0.72077578 1.1893236e-38
8.0397863 -1.4192959 -0.67827237 1.1247867e-38
8.0792704 -1.422479 -0.63733536 1.244641e-38
8.1360216 -1.4267679 -0.59769082 1.2999584e-38
8.2100592 -1.4321682 -0.5590651 1.0879084e-38
8.2314901 -1.4342189 -0.51518667 1.1708845e-38
8.3576155 -1.4429687 -0.47954997 1.1247867e-38
8.4311218 -1.4483681 -0.43866211 1.1616649e-38
8.311944 -1.4414235 -0.38355723 1.1340062e-38
8.3499899 -1.4445533 -0.33991086 1.1432258e-38
8.4403505 -1.4510512 -0.29900277 1.0325911e-38
8.3728743 -1.4474052 -0.24862504 1.1432258e-38
8.3401604 -1.4459882 -0.20068255 1.1708845e-38
8.3247128 -1.4456794 -0.15386064 1.2999584e-38
8.4141893 -1.4521452 -0.11124841 1.1063476e-38
8.363203 -1.4495411 -0.063061319 1.0049324e-38
8.3119574 -1.4469119 -0.015418121 1.244641e-38
8.2955303 -1.4465317 0.030886317 1.244641e-38
8.243783 -1.4438564 0.077621639 1.1524454e-38
8.3496475 -1.4514147 0.12189452 1.1524454e-38
8.3851204 -1.45441 0.16775736 1.0786889e-38
6.3154426 -1.320284 0.21743044 1.0602497e-38
8.3501005 -1.453506 0.26021093 1.1616649e-38
8.3497686 -1.4541717 0.30631635 1.0510302e-38
6.3322186 -1.3229653 0.32396781 1.1801041e-38
6.156219 -1.3119755 0.35609165 1.0510302e-38
6.2431045 -1.3181851 0.39284322 1.1524454e-38
6.2596526 -1.3197937 0.42841658 1.0879084e-38
6.223423 -1.3179382 0.46232224 1.1063476e-38
6.1169195 -1.3114557 0.49302411 1.1616649e-38
6.2906342 -1.3234073 0.53540426 1.1616649e-38
6.1487637 -1.3145825 0.56357247 1.1340062e-38
5.9717641 -1.3034171 0.58829468 1.1063476e-38
6.2323689 -1.3211405 0.63804436 1.1340062e-38
6.0025892 -1.3064629 0.65786695 1.1063476e-38
6.1576767 -1.3172413 0.70298058 1.1063476e-38
6.0501461 -1.3106292 0.72947711 1.1893236e-38
5.9774847 -1.3063158 0.75774312 1.1524454e-38
6.0444889 -1.311275 0.79753184 1.1155671e-38
5.9366088 -1.3046068 0.82178313 1.0602497e-38
5.898478 -1.3025693 0.85178703 1.2815193e-38
5.9125476 -1.3040085 0.88683367 1.2538606e-38
5.9264245 -1.3054377 0.92204529 1.3368366e-38
5.9226809 -1.3056914 0.9554292 1.2722997e-38
5.9710083 -1.309431 0.99504238 1.244641e-38
5.9842863 -1.3108298 1.0308341 1.1247867e-38
5.9277959 -1.3075495 1.0577234 1.1893236e-38
6.0276241 -1.3147631 1.1052551 9.7727368e-39
5.9708185 -1.3114575 1.131824 9.1273674e-39
5.9486232 -1.3104744 1.1628999 9.219563e-39
5.9956427 -1.3141552 1.2042888 9.6805411e-39
6.0077496 -1.3154877 1.2407547 8.2054111e-39
7.9974666 -1.4509789 -1.4599485 1.0879084e-38
7.9458485 -1.4487635 -1.3580818 9.0351717e-39
7.9540777 -1.4499428 -1.3140367 8.7585848e-39
7.9102964 -1.447612 -1.2606013 1.1340062e-38
7.9180179 -1.4487532 -1.2167437 9.6805411e-39
7.8909264 -1.4475398 -1.1669769 1.1432258e-38
7.8981586 -1.4486455 -1.1232218 1.2630801e-38
7.9051628 -1.4497356 -1.079429 1.0879084e-38
7.8946023 -1.4496338 -1.0329379 1.2722997e-38
7.901135 -1.4506907 -0.98916465 1.4290323e-38
7.9074378 -1.451732 -0.94535744 1.3552758e-38
7.8787632 -1.4503921 -0.89674008 1.1340062e-38
7.9019713 -1.4525831 -0.85534865 1.0510302e-38
7.9075766 -1.4535756 -0.81153822 1.1616649e-38
7.8433123 -1.4497962 -0.75923902 1.1432258e-38
7.9180989 -1.4555136 -0.72383147 1.0049324e-38
8.01017 -1.4624243 -0.68959814 1.0879084e-38
8.0323477 -1.4645588 -0.64706194 1.3737149e-38
8.1066608 -1.4702719 -0.60956538 1.2538606e-38
8.1633539 -1.4747852 -0.56965518 1.2815193e-38
8.2198629 -1.4792935 -0.52917296 1.1893236e-38
8.258707 -1.4825939 -0.48664528 1.1524454e-38
8.3672724 -1.4907018 -0.44926032 1.1893236e-38
8.4232149 -1.4951965 -0.40688336 1.0786889e-38
8.4089708 -1.4948541 -0.35914236 9.8649324e-39
8.5519867 -1.5053754 -0.32153153 1.0325911e-38
8.4847622 -1.5013748 -0.27025369 1.1063476e-38
8.3997402 -1.4961319 -0.21877344 1.0879084e-38
8.5246258 -1.5054256 -0.17817555 1.0233715e-38
8.5617218 -1.5086458 -0.13258202 1.0049324e-38
8.4408703 -1.5009005 -0.080783218 1.1340062e-38
8.3022032 -1.4918989 -0.029707437 1.0233715e-38
8.3736048 -1.4974979 0.014342343 1.1155671e-38
8.3220625 -1.4945414 0.061734911 1.3183975e-38
8.3404026 -1.4964511 0.1074626 1.1247867e-38
8.3760386 -1.499571 0.15319078 1.0879084e-38
8.2886906 -1.4941007 0.19995752 1.0049324e-38
6.2897553 -1.3548827 0.2461744 1.0141519e-38
6.3422408 -1.3590426 0.2817798 1.0233715e-38
8.3583632 -1.5008693 0.33817157 1.1432258e-38
8.4453897 -1.5076096 0.38573033 9.7727368e-39
6.3582954 -1.361635 0.38898164 1.1340062e-38
6.3399 -1.3608309 0.42422286 1.1616649e-38
6.2862711 -1.3575442 0.45817783 1.1063476e-38
6.3025675 -1.3591771 0.49413785 1.1340062e-38
6.2310753 -1.3546203 0.52661186 1.1340062e-38
6.1244016 -1.3475693 0.55669343 1.1340062e-38
6.1401739 -1.3491578 0.59207886 1.1985432e-38
6.1557555 -1.3507352 0.62763864 1.1524454e-38
6.0486474 -1.3436258 0.65566999 1.1247867e-38
6.0114064 -1.3414545 0.68735635 1.1432258e-38
6.043962 -1.3442316 0.72379893 1.1432258e-38
6.0588326 -1.3457574 0.75921988 1.1616649e-38
6.0036201 -1.3423018 0.78894079 1.0694693e-38
6.0181351 -1.3438023 0.82433289 1.1155671e-38
5.8578954 -1.3328526 0.84338528 1.1985432e-38
5.9070063 -1.3368133 0.88168001 1.1155671e-38
5.9210124 -1.3382751 0.91683912 1.1155671e-38
5.9348245 -1.3397255 0.9521628 1.2354214e-38
5.9136066 -1.338672 0.98361653 1.244641e-38
5.9270487 -1.3400985 1.0190837 1.0049324e-38
5.9402943 -1.3415134 1.0547124 1.1524454e-38
5.9707251 -1.3441643 1.0927925 1.0602497e-38
8.0333633 -1.4928182 1.4099138 9.0351717e-39
5.9961948 -1.3469361 1.1650302 1.0325911e-38
5.9565907 -1.3445581 1.1936926 9.957128e-39
6.0035224 -1.348411 1.2352411 8.4819979e-39
7.9536142 -1.5087289 -1.4921035 8.9429761e-39
7.9625111 -1.5099669 -1.448002 9.3117586e-39
7.9539704 -1.5099368 -1.4004886 1.0510302e-38
7.962389 -1.5111388 -1.3563862 9.957128e-39
7.9188533 -1.5085554 -1.3026853 1.0325911e-38
7.9267612 -1.5097166 -1.2587681 9.0351717e-39
7.9171672 -1.5096003 -1.2118058 1.1801041e-38
7.9073124 -1.5094624 -1.1649853 1.1247867e-38
7.9145021 -1.5105687 -1.1211299 1.0141519e-38
7.886826 -1.5091226 -1.0717744 1.1155671e-38
7.8935304 -1.5101911 -1.0280273 1.3091779e-38
7.9000053 -1.5112427 -0.98424542 1.2907388e-38
7.9236097 -1.513552 -0.94288802 1.1801041e-38
7.8601546 -1.5094661 -0.88948071 1.0418106e-38
7.8832903 -1.5117396 -0.84815097 1.2630801e-38
7.8714314 -1.5114392 -0.80223984 1.1801041e-38
7.7374811 -1.5021393 -0.74183017 1.2630801e-38
7.7250481 -1.5017835 -0.69686824 1.097128e-38
7.8692102 -1.5129865 -0.66925651 1.1432258e-38
8.1004839 -1.530646 -0.64925021 1.0786889e-38
8.1398678 -1.5341432 -0.60783947 1.2354214e-38
8.1790514 -1.5376304 -0.56603914 1.2538606e-38
8.2354965 -1.5424014 -0.52539414 1.2538606e-38
8.2568092 -1.5445739 -0.48127344 1.2907388e-38
8.3128548 -1.5493273 -0.43967068 1.1340062e-38
8.2987652 -1.5488762 -0.39242342 1.1985432e-38
8.4243469 -1.5588108 -0.35475832 1.0879084e-38
8.3048229 -1.5505159 -0.30059916 1.1893236e-38
8.3950005 -1.5578291 -0.25963047 1.0879084e-38
8.3799467 -1.5573064 -0.21232092 1.0418106e-38
8.3471317 -1.5554556 -0.16437329 1.0879084e-38
8.3315744 -1.5548892 -0.11749974 1.0602497e-38
8.2982502 -1.552992 -0.070174709 1.1708845e-38
8.2821951 -1.5523826 -0.02374257 1.2354214e-38
8.2834187 -1.5530653 0.022071315 1.2722997e-38
8.3194532 -1.5563583 0.06719207 1.3183975e-38
8.2851486 -1.554377 0.11371589 1.1708845e-38
6.3575788 -1.4101681 0.17775226 1.1432258e-38
6.3052006 -1.4066902 0.21368001 1.0786889e-38
6.305222 -1.4071486 0.24911197 1.0418106e-38
6.3401141 -1.4102337 0.28476483 1.0325911e-38
6.1995454 -1.4000952 0.31875876 1.1893236e-38
6.2340717 -1.4031503 0.35422429 1.097128e-38
6.1106925 -1.394284 0.38657519 1.2722997e-38
6.1098146 -1.3946617 0.42098442 1.1801041e-38
6.091238 -1.3937001 0.4548181 1.1985432e-38
6.2651587 -1.4073139 0.49575052 1.1708845e-38
6.0710793 -1.3930581 0.52266973 1.1247867e-38
6.0869985 -1.3947077 0.55771631 1.2262019e-38
5.962709 -1.3857132 0.58543086 1.1985432e-38
6.0657797 -1.3939817 0.62524307 1.1524454e-38
6.0111809 -1.3902707 0.656048 1.097128e-38
6.0263829 -1.391867 0.69114637 1.1708845e-38
5.9015641 -1.3827955 0.71596998 1.0510302e-38
6.0562158 -1.3950233 0.76185608 1.2262019e-38
5.9835224 -1.3899169 0.79001904 1.1432258e-38
5.8583479 -1.3807907 0.81269062 1.2169823e-38
5.8552499 -1.3809841 0.84577125 1.2354214e-38
5.9042935 -1.3851688 0.8841278 1.3737149e-38
5.9356794 -1.3880078 0.92116046 1.2815193e-38
5.8275003 -1.3801492 0.94296306 1.1801041e-38
5.9281721 -1.388306 0.98811233 1.1524454e-38
5.8719645 -1.3844256 1.0151681 1.2354214e-38
5.9373522 -1.3898875 1.0572038 1.0510302e-38
8.0004778 -1.5491012 1.3658949 1.1155671e-38
8.0291739 -1.5518937 1.4150252 1.097128e-38
8.074935 -1.5560068 1.4669831 1.0602497e-38
8.0857134 -1.5574275 1.5142817 1.0325911e-38
7.8929205 -1.5610373 -1.6093457 1.0510302e-38
7.9024849 -1.5622983 -1.5654792 9.4039542e-39
7.9118214 -1.5635415 -1.5215628 9.4961499e-39
7.9209275 -1.5647668 -1.477598 1.0141519e-38
7.9384518 -1.5671636 -1.389527 8.4819979e-39
7.9124327 -1.5656397 -1.3388736 8.8507805e-39
7.9033518 -1.5654384 -1.2917228 1.0786889e-38
7.9112582 -1.5665667 -1.2478044 9.8649324e-39
7.8844023 -1.5649679 -1.1978384 9.8649324e-39
7.8745384 -1.5646989 -1.151108 1.0786889e-38
7.8817115 -1.5657665 -1.1073422 9.4039542e-39
7.8713455 -1.565455 -1.0608083 1.1708845e-38
7.8953738 -1.567848 -1.0196999 1.0879084e-38
7.8498445 -1.5647652 -0.96817952 1.244641e-38
7.8560638 -1.5657547 -0.92454505 1.1801041e-38
7.6710496 -1.5516608 -0.85484642 1.1247867e-38
7.8504429 -1.566308 -0.83490515 1.1247867e-38
7.7690277 -1.560374 -0.78034872 1.1524454e-38
7.4436903 -1.5351468 -0.69737983 1.1616649e-38
7.3962755 -1.5318674 -0.64987737 1.1524454e-38
7.575037 -1.5464886 -0.62772614 1.1893236e-38
8.067502 -1.5859859 -0.63645011 1.1432258e-38
8.106863 -1.589614 -0.59512883 1.1247867e-38
8.1634722 -1.594615 -0.555053 1.2907388e-38
8.1675291 -1.595449 -0.50977492 1.1616649e-38
8.2761278 -1.6045909 -0.47318655 1.1801041e-38
8.3146963 -1.6081758 -0.43003747 1.0418106e-38
8.265667 -1.6047932 -0.38016152 1.0141519e-38
8.3562269 -1.6125222 -0.34023035 1.1247867e-38
8.3066912 -1.6090951 -0.29068801 1.1432258e-38
8.2743778 -1.6070355 -0.2426746 1.1063476e-38
6.4743681 -1.4638665 -0.10403291 1.0141519e-38
8.3314991 -1.6126298 -0.15337341 1.0325911e-38
8.2809334 -1.6091061 -0.10506555 1.0694693e-38
6.4089565 -1.4598603 0.0076981629 1.1340062e-38
6.4101086 -1.4603574 0.043755509 1.1801041e-38
6.3935566 -1.4594361 0.080259591 1.2907388e-38
6.3242564 -1.4542834 0.11763136 1.1340062e-38
6.3773961 -1.4589467 0.15247193 1.1063476e-38
6.1850629 -1.4439056 0.19017656 1.0879084e-38
6.2903957 -1.4527608 0.22461881 1.1708845e-38
6.2378535 -1.4489331 0.25999412 1.1340062e-38
6.0624809 -1.4352146 0.29403892 1.0418106e-38
6.0621452 -1.4355717 0.32827383 1.1432258e-38
6.2193003 -1.4486209 0.36516353 1.2354214e-38
6.1134887 -1.4404806 0.39789817 1.2630801e-38
5.9199481 -1.4252474 0.42712852 1.2077628e-38
6.0064797 -1.4326124 0.46346968 1.1985432e-38
6.0052605 -1.4328951 0.4974089 1.2538606e-38
6.0563784 -1.437411 0.53360689 1.2354214e-38
5.862287 -1.4220847 0.55848956 1.1893236e-38
5.7556005 -1.4138159 0.58603656 1.3276171e-38
5.9811225 -1.4324645 0.63205856 1.2262019e-38
5.7167521 -1.4113989 0.64902174 1.0510302e-38
5.8194413 -1.4201006 0.68872499 1.0786889e-38
5.81705 -1.420278 0.72167981 1.0694693e-38
5.8494163 -1.4232811 0.75741798 1.2262019e-38
5.8466659 -1.4234313 0.79052961 1.2815193e-38
5.8088441 -1.4207261 0.82046336 1.1432258e-38
5.7883248 -1.4194266 0.85168815 1.1155671e-38
5.8199468 -1.4223763 0.88800758 1.1893236e-38
5.816515 -1.4224701 0.92096323 1.1524454e-38
7.9197536 -1.5945871 1.1895852 1.0325911e-38
7.8973083 -1.5932529 1.2315282 1.0786889e-38
7.9789972 -1.6004323 1.2860453 1.0325911e-38
7.9734492 -1.6004831 1.3303379 1.1063476e-38
8.0197697 -1.6047816 1.3815405 9.3117586e-39
7.9443035 -1.5991052 1.4164287 9.1273674e-39
8.0594673 -1.6090553 1.4780067 9.219563e-39
7.8736262 -1.6578406 -1.6160946 8.6663892e-39
7.8832035 -1.659079 -1.5722302 9.5883455e-39
7.9096851 -1.6617726 -1.5319571 1.0602497e-38
7.9188232 -1.662974 -1.487904 1.0325911e-38
7.89324 -1.6620053 -1.3456228 9.8649324e-39
7.8841844 -1.6616335 -1.298468 9.5883455e-39
7.874866 -1.6612374 -1.2514518 8.9429761e-39
7.848033 -1.6593256 -1.2015671 9.3117586e-39
7.8554487 -1.6603725 -1.1578412 1.0233715e-38
7.8453517 -1.6599039 -1.1112496 9.8649324e-39
7.8349967 -1.6594114 -1.0648023 1.0233715e-38
7.8243861 -1.658895 -1.0185008 1.097128e-38
7.8308473 -1.6598568 -0.97490096 1.1985432e-38
7.802402 -1.6577911 -0.926341 9.4961499e-39
7.5481009 -1.6361238 -0.8472771 1.1063476e-38
7.5189452 -1.633979 -0.80056936 1.0049324e-38
7.4547725 -1.6287888 -0.74981886 1.0418106e-38
7.4424515 -1.628099 -0.70606595 1.1616649e-38
7.3950977 -1.6243608 -0.65845615 1.1247867e-38
7.4170961 -1.6266522 -0.61903137 1.1801041e-38
8.0485058 -1.6820025 -0.64323264 1.2262019e-38
8.1227121 -1.6888745 -0.60538733 1.0510302e-38
8.1270132 -1.6896602 -0.56022328 1.0602497e-38
8.2008533 -1.6965102 -0.52123302 1.2538606e-38
8.274519 -1.7033516 -0.48148829 1.1524454e-38
8.2083368 -1.6979907 -0.43006551 1.0418106e-38
8.2641182 -1.7032766 -0.38827446 1.1432258e-38
8.3371716 -1.7100772 -0.3470971 1.0602497e-38
8.2876883 -1.7061691 -0.2975381 1.0325911e-38
8.2379322 -1.7022321 -0.24851529 1.0418106e-38
6.3691683 -1.5390546 -0.10577182 9.957128e-39
6.4408636 -1.5456591 -0.073086873 1.0694693e-38
6.337441 -1.5369236 -0.032433067 1.0418106e-38
6.4087839 -1.5435021 0.00082008523 1.097128e-38
6.3049383 -1.534718 0.040200908 1.1247867e-38
6.3759246 -1.5412703 0.074018426 1.1893236e-38
6.3241916 -1.5370513 0.11105828 1.1063476e-38
6.1847186 -1.5251175 0.14886218 1.1524454e-38
6.1851201 -1.5254681 0.18383285 1.1340062e-38
6.0977869 -1.5181011 0.21919736 1.0879084e-38
6.132844 -1.5214977 0.25373769 1.1524454e-38
6.0451493 -1.514088 0.28790641 1.1340062e-38
6.0448284 -1.5143685 0.32214218 1.2815193e-38
6.0968518 -1.5192634 0.35724506 1.2354214e-38
6.026144 -1.513338 0.39022496 1.1616649e-38
6.0077858 -1.5120258 0.42388612 1.2354214e-38
5.7792435 -1.492153 0.45056966 1.097128e-38
5.8830647 -1.5016217 0.48735255 1.1432258e-38
5.7242608 -1.487886 0.51398742 1.2538606e-38
5.8451939 -1.4988755 0.55242574 1.1432258e-38
5.7385864 -1.4897419 0.58000678 1.3368366e-38
5.7017875 -1.486779 0.61057764 1.1340062e-38
5.7871599 -1.4946351 0.648592 1.1340062e-38
5.7325583 -1.4900935 0.67784095 1.0694693e-38
5.7476702 -1.491729 0.71173096 1.1063476e-38
5.7800517 -1.4948984 0.74718446 1.1247867e-38
5.7773399 -1.4949559 0.7800225 1.1155671e-38
5.7918949 -1.496547 0.81442201 1.1616649e-38
7.8107285 -1.6762595 1.0407794 1.0694693e-38
7.8238697 -1.6778241 1.0860471 1.0786889e-38
7.9064116 -1.6855648 1.1388786 1.0325911e-38
7.901618 -1.6855397 1.182889 1.0786889e-38
7.8444219 -1.6808475 1.2207723 1.0786889e-38
7.9608645 -1.6916233 1.2793325 1.0602497e-38
7.7816491 -1.6760507 1.3014623 9.4039542e-39
7.8627949 -1.683687 1.3563545 8.4819979e-39
7.8972044 -1.6746787 -1.5724775 1.0879084e-38
7.9066157 -1.6759124 -1.5284828 1.1063476e-38
7.9157977 -1.6771262 -1.4844391 9.957128e-39
7.890358 -1.6761813 -1.3421322 9.1273674e-39
7.8813496 -1.6758173 -1.2949682 9.957128e-39
7.8548436 -1.6739351 -1.2448257 9.5883455e-39
7.8452959 -1.67352 -1.1980306 8.5741936e-39
7.8527551 -1.6745788 -1.1543124 1.1432258e-38
7.8599858 -1.6756177 -1.1105553 1.097128e-38
7.8496923 -1.6751344 -1.0640067 1.0325911e-38
7.8218331 -1.6731229 -1.0149406 1.1801041e-38
7.8456616 -1.6756027 -0.97391939 1.0141519e-38
7.7999415 -1.6720328 -0.92275852 9.4039542e-39
7.5457268 -1.6503072 -0.84343463 1.0141519e-38
7.5166187 -1.648164 -0.7966972 1.0141519e-38
7.6088562 -1.6565933 -0.76574671 1.0694693e-38
7.5097589 -1.6483461 -0.71057951 1.1155671e-38
7.4972868 -1.6476469 -0.666605 1.1616649e-38
7.1886845 -1.6210936 -0.58992493 1.1893236e-38
8.0463228 -1.6963803 -0.63990265 1.0510302e-38
8.1205645 -1.7032826 -0.60213333 1.2262019e-38
8.1423445 -1.7056041 -0.55863231 1.1708845e-38
8.1639051 -1.7079082 -0.5149256 1.1616649e-38
8.2026939 -1.7117221 -0.47248945 1.1155671e-38
8.2936459 -1.7201085 -0.43381649 1.0510302e-38
8.2621841 -1.717775 -0.38516569 1.0418106e-38
8.212986 -1.7138828 -0.33566448 9.4961499e-39
8.2508926 -1.717628 -0.29223773 9.4039542e-39
8.2361383 -1.7167536 -0.2453801 1.0141519e-38
6.3675675 -1.5530508 -0.10072504 9.4039542e-39
6.4392939 -1.5596838 -0.068113521 1.0602497e-38
6.3534093 -1.5524648 -0.02809434 1.1155671e-38
6.407289 -1.5575336 0.0058260728 1.1063476e-38
6.4084949 -1.5579709 0.041974559 1.1155671e-38
6.2519741 -1.5445164 0.082308769 1.1801041e-38
6.2002649 -1.5402831 0.1187574 1.1340062e-38
6.1833777 -1.5391151 0.15409704 1.2722997e-38
6.0962687 -1.5317503 0.19000903 1.1247867e-38
6.0439897 -1.5274516 0.22480997 1.1340062e-38
6.1316094 -1.535503 0.25902534 1.1432258e-38
6.0264421 -1.5265275 0.29319599 1.1155671e-38
6.0436645 -1.5283626 0.32751971 1.1893236e-38
6.0957222 -1.5332808 0.36256927 1.2722997e-38
6.0075431 -1.5257922 0.39525765 1.0602497e-38
6.0067248 -1.5260314 0.42930129 1.1801041e-38
5.7782154 -1.5060965 0.4562186 1.1063476e-38
5.882071 -1.5156041 0.49289516 1.1801041e-38
5.7232976 -1.501827 0.51969248 1.2630801e-38
5.7393255 -1.5035478 0.55306464 1.1155671e-38
5.7376895 -1.5037019 0.585697 1.3460562e-38
5.7009215 -1.5007347 0.61630541 1.0786889e-38
5.7863302 -1.5086247 0.65423232 1.1616649e-38
5.7317586 -1.5040733 0.68353713 1.0602497e-38
5.7643666 -1.5072747 0.71869457 1.0879084e-38
7.8215828 -1.6907454 0.91368616 1.097128e-38
5.8638806 -1.5167433 0.79300529 1.0233715e-38
5.7912307 -1.5105746 0.82005709 1.0233715e-38
7.8799615 -1.697157 1.050948 1.1340062e-38
7.788578 -1.6894081 1.0861195 1.1524454e-38
5.8164525 -1.5137383 0.92238164 1.1063476e-38
7.9012661 -1.7002774 1.1863647 1.0141519e-38
7.8441095 -1.6955767 1.2243063 1.0049324e-38
7.9606075 -1.7064002 1.2827474 1.0233715e-38
7.9377551 -1.704767 1.3248494 9.0351717e-39
7.8606234 -1.6706803 -1.6563864 8.2054111e-39
7.8875637 -1.6734252 -1.6164218 9.8649324e-39
7.8972044 -1.6746787 -1.5724775 1.0233715e-38
7.9066157 -1.6759124 -1.5284828 1.1340062e-38
7.9329462 -1.6786081 -1.4880078 1.1063476e-38
7.941916 -1.6798044 -1.4438261 1.0694693e-38
7.8813496 -1.6758173 -1.2949682 1.0786889e-38
7.8893132 -1.6769223 -1.2510597 1.0049324e-38
7.8625464 -1.6750158 -1.201057 1.0879084e-38
7.8700213 -1.6760768 -1.1572479 1.2169823e-38
7.8772674 -1.6771179 -1.1134001 1.1432258e-38
7.8669891 -1.6766368 -1.0667607 1.1063476e-38
7.8218331 -1.6731229 -1.0149406 1.2630801e-38
7.8456616 -1.6756027 -0.97391939 1.0602497e-38
7.8519516 -1.6765581 -0.93020135 1.0141519e-38
7.8059664 -1.6729628 -0.87928128 1.1155671e-38
7.6902332 -1.6632868 -0.81968284 1.0141519e-38
7.6088562 -1.6565933 -0.76574671 1.0786889e-38
7.4576058 -1.6437981 -0.70423168 1.0879084e-38
7.4972868 -1.6476469 -0.666605 1.1340062e-38
7.1886845 -1.6210936 -0.58992493 1.1893236e-38
8.0463228 -1.6963803 -0.63990265 1.0694693e-38
8.0857162 -1.7002369 -0.59863317 1.1247867e-38
8.1772099 -1.708653 -0.56194919 1.0510302e-38
8.1813469 -1.7094342 -0.51649243 1.1708845e-38
8.2026939 -1.7117221 -0.47248945 1.1063476e-38
8.2412758 -1.7155213 -0.42966631 1.1247867e-38
8.3495026 -1.7254276 -0.3916238 1.0141519e-38
8.2653961 -1.7184786 -0.33926398 9.7727368e-39
8.3033209 -1.7222278 -0.2955617 1.1063476e-38
8.2536201 -1.7182882 -0.24639621 1.0786889e-38
8.2910814 -1.7219993 -0.20238927 9.8649324e-39
8.2758484 -1.7210829 -0.15550505 1.0325911e-38
6.3534093 -1.5524648 -0.02809434 1.0602497e-38
6.3897905 -1.5559942 0.0064744703 1.1616649e-38
6.3909931 -1.5564303 0.042530958 1.1247867e-38
6.3745041 -1.5553082 0.07905785 1.2077628e-38
6.2002649 -1.5402831 0.1187574 1.1801041e-38
6.1308532 -1.5344839 0.15493821 1.1893236e-38
6.1137772 -1.533295 0.18982065 1.1063476e-38
6.0439897 -1.5274516 0.22480997 1.1340062e-38
6.1491199 -1.5370494 0.25902104 1.0510302e-38
6.0964804 -1.5327164 0.29354692 1.0141519e-38
6.0611739 -1.5299106 0.32769948 1.1893236e-38
6.0957222 -1.5332808 0.36256927 1.3552758e-38
6.0950727 -1.5335392 0.39707673 1.1340062e-38
6.0417323 -1.5291315 0.43021294 1.1616649e-38
6.0057292 -1.5262549 0.46334034 1.1155671e-38
5.882071 -1.5156041 0.49289516 1.2538606e-38
5.7232976 -1.501827 0.51969248 1.2262019e-38
5.8617563 -1.5144132 0.55883062 1.1616649e-38
5.7376895 -1.5037019 0.585697 1.2538606e-38
5.7184024 -1.5022877 0.61731297 1.1247867e-38
5.7513804 -1.505518 0.65203351 1.1155671e-38
5.7142901 -1.5025196 0.68234587 1.0786889e-38
5.7643666 -1.5072747 0.71869457 1.0602497e-38
5.7793207 -1.5089077 0.75283182 1.1247867e-38
5.8638806 -1.5167433 0.79300529 1.097128e-38
5.7563515 -1.5074656 0.81694061 1.1524454e-38
7.8799615 -1.697157 1.050948 1.0694693e-38
7.8931122 -1.6987358 1.0965686 1.0786889e-38
5.8164525 -1.5137383 0.92238164 1.1893236e-38
7.9186692 -1.7018321 1.1882892 1.0694693e-38
7.9658589 -1.7064583 1.2384186 9.7727368e-39
7.9606075 -1.7064002 1.2827474 9.8649324e-39
7.9377551 -1.704767 1.3248494 1.0141519e-38
7.932054 -1.7046677 1.3690296 8.8507805e-39
7.9781618 -1.7092091 1.4203233 9.3117586e-39
7.8735709 -1.6200294 -1.660612 9.0351717e-39
7.8834543 -1.6215899 -1.6167314 1.0418106e-38
7.902534 -1.6246574 -1.5288166 1.0602497e-38
7.9288869 -1.627499 -1.4883664 1.1708845e-38
7.9378705 -1.6289911 -1.4441965 1.1985432e-38
7.9294295 -1.6291246 -1.3965783 9.1273674e-39
7.877296 -1.6266268 -1.2953073 9.4039542e-39
7.885272 -1.6280323 -1.2514095 8.9429761e-39
7.8757596 -1.6280676 -1.2044307 9.4039542e-39
7.8659863 -1.6280793 -1.1575928 1.1063476e-38
7.8732448 -1.6294253 -1.1137553 1.097128e-38
7.8629689 -1.6293927 -1.0671129 1.1155671e-38
7.8524356 -1.6293366 -1.0206156 1.2262019e-38
7.8243127 -1.6278912 -0.97167969 1.1985432e-38
7.8132548 -1.6277858 -0.9255681 1.0602497e-38
7.8019452 -1.6276573 -0.87960595 1.1247867e-38
7.6166706 -1.6137671 -0.8106761 1.1801041e-38
7.6221232 -1.6149436 -0.76815045 1.1340062e-38
7.6273537 -1.6161025 -0.72559631 1.1893236e-38
7.5801477 -1.6130998 -0.67690128 1.244641e-38
7.5152426 -1.6086814 -0.6267823 1.2262019e-38
8.0424862 -1.6513535 -0.64044034 1.1985432e-38
8.0819101 -1.6552724 -0.59920597 1.2815193e-38
8.103693 -1.657791 -0.55590975 1.1893236e-38
8.1601601 -1.6630814 -0.51556832 1.3460562e-38
8.2338982 -1.6697615 -0.47614408 1.2538606e-38
8.2375917 -1.6708508 -0.43037844 1.1801041e-38
8.3633623 -1.6817175 -0.39372948 1.0049324e-38
8.2617426 -1.6743733 -0.34000456 1.2169823e-38
8.2996979 -1.6782146 -0.29633653 1.2077628e-38
8.2499771 -1.6750159 -0.24713756 1.0786889e-38
8.2874689 -1.6788247 -0.20316452 1.0233715e-38
8.2897358 -1.6798025 -0.15711929 1.1247867e-38
6.3837047 -1.5268978 -0.028885106 1.1063476e-38
6.4026117 -1.5290461 0.0064975279 1.3276171e-38
6.3337779 -1.5241064 0.044921219 1.1985432e-38
6.3873348 -1.5290568 0.079269029 1.1708845e-38
6.2130036 -1.5155574 0.11919219 1.1985432e-38
6.1435599 -1.5105319 0.15551527 1.1524454e-38
6.144001 -1.511167 0.19029734 1.2262019e-38
6.2669001 -1.5217547 0.22431166 1.1340062e-38
6.0742569 -1.5066912 0.25993857 1.1985432e-38
6.1617541 -1.5144111 0.29472631 1.097128e-38
6.0563531 -1.5064173 0.32860646 1.2169823e-38
6.1084456 -1.5112613 0.3637037 1.3552758e-38
6.0377359 -1.506079 0.39689946 1.3091779e-38
5.9143205 -1.4965717 0.42802921 1.2538606e-38
6.0009007 -1.5042422 0.46427605 1.2999584e-38
5.9997334 -1.5047334 0.49830681 1.3091779e-38
5.7183146 -1.4822197 0.52084237 1.2999584e-38
5.8568611 -1.4941672 0.5598684 1.3829344e-38
5.7502222 -1.4859688 0.58773059 1.4013736e-38
5.7134337 -1.4835044 0.61845624 1.2815193e-38
5.7988935 -1.4911131 0.65640444 1.1063476e-38
5.7093315 -1.4842911 0.68348545 1.1340062e-38
5.741971 -1.487551 0.71852195 1.1893236e-38
5.7918787 -1.4922457 0.75527424 1.2262019e-38
5.8415713 -1.4969321 0.79256362 1.1893236e-38
5.7863426 -1.4929297 0.82112193 1.1340062e-38
7.8414545 -1.6640697 1.0470872 1.097128e-38
7.8895049 -1.6688222 1.0959649 1.1616649e-38
7.8327298 -1.6648649 1.1344537 1.2077628e-38
7.932508 -1.6739346 1.1895666 1.1801041e-38
7.910111 -1.6728384 1.2317362 1.097128e-38
7.9744663 -1.678979 1.2841648 1.1063476e-38
7.9689789 -1.6792973 1.3285565 1.0141519e-38
7.8243027 -1.6679741 1.3547088 8.9429761e-39
7.9225922 -1.6769691 1.4125164 8.3898023e-39
7.8718066 -1.6682242 -1.6336609 8.8507805e-39
7.8986144 -1.6713912 -1.5935351 8.9429761e-39
7.9435539 -1.6780446 -1.4647429 1.0233715e-38
7.9523687 -1.6797653 -1.4204533 1.0049324e-38
7.9004288 -1.6775496 -1.3187504 8.8507805e-39
7.8912473 -1.6777967 -1.2715317 1.0233715e-38
7.8990555 -1.6794254 -1.2275177 8.6663892e-39
7.8548317 -1.6768044 -1.1745381 8.9429761e-39
7.8448524 -1.6769722 -1.1278316 1.0510302e-38
7.8519111 -1.6785315 -1.0840619 1.0879084e-38
7.8587422 -1.6800722 -1.0402553 1.0879084e-38
7.8133698 -1.6773247 -0.98857826 1.0233715e-38
7.8197026 -1.6788183 -0.94497454 9.6805411e-39
7.8084574 -1.678864 -0.89890832 9.7727368e-39
7.5538793 -1.6588314 -0.82025659 1.1432258e-38
7.6114645 -1.6645269 -0.78475791 1.0325911e-38
7.4950361 -1.6558385 -0.72712559 1.1247867e-38
7.4304247 -1.6514146 -0.67693776 1.1063476e-38
7.4003263 -1.6498379 -0.63140118 1.0879084e-38
7.4222226 -1.6525728 -0.59185046 1.0786889e-38
7.1650963 -1.6320984 -0.52345312 1.1247867e-38
8.0756626 -1.708845 -0.57157671 1.097128e-38
8.1147003 -1.7130929 -0.52981031 1.1432258e-38
8.1535378 -1.717332 -0.48765564 1.1247867e-38
8.2096262 -1.7230225 -0.44653723 1.1708845e-38
8.230588 -1.7257825 -0.40218556 1.1708845e-38
6.4690824 -1.5790175 -0.23115289 9.4039542e-39
8.2718344 -1.7312577 -0.31287822 1.0602497e-38
8.2921152 -1.7339725 -0.26792485 9.5883455e-39
6.28336 -1.5657769 -0.11089265 9.4961499e-39
6.3726211 -1.5740849 -0.079693757 9.5883455e-39
6.3742452 -1.5750108 -0.043663025 1.0141519e-38
6.3231745 -1.5714799 -0.0055577047 1.0694693e-38
6.3244133 -1.5723672 0.03021295 1.2354214e-38
6.0978608 -1.5539358 0.072552584 1.1893236e-38
6.378861 -1.5785555 0.10053384 1.0879084e-38
6.2044244 -1.5645097 0.13980497 1.1801041e-38
6.117341 -1.5578623 0.17609531 1.2354214e-38
6.1526642 -1.5616322 0.21051018 1.1616649e-38
6.1002364 -1.5579176 0.24551855 1.097128e-38
6.1351981 -1.5616626 0.28021136 1.0510302e-38
5.9948416 -1.5504062 0.31387943 1.0325911e-38
5.8893471 -1.5421063 0.34653634 1.2077628e-38
6.0988874 -1.5608256 0.38390532 1.2538606e-38
6.0280643 -1.555494 0.41683507 1.2630801e-38
5.7995262 -1.5365714 0.44445959 1.2538606e-38
5.7809258 -1.5356904 0.47687811 1.1708845e-38
5.8846564 -1.5453629 0.51394492 1.2077628e-38
5.7257352 -1.532362 0.54036176 1.2815193e-38
5.689157 -1.5299114 0.57124144 1.1985432e-38
5.7398582 -1.5350153 0.60657942 1.4105931e-38
5.7029552 -1.5325305 0.63716549 1.0879084e-38
5.7882271 -1.540652 0.67542809 1.1893236e-38
5.7160521 -1.5350969 0.70341587 1.1616649e-38
5.748528 -1.5386417 0.73866236 1.1340062e-38
5.7808037 -1.5421771 0.77426279 1.0786889e-38
5.7430935 -1.539608 0.80414563 1.0049324e-38
7.7977753 -1.7200217 1.0267566 1.0786889e-38
7.8458786 -1.7251937 1.0753729 1.1432258e-38
7.8762803 -1.7288257 1.1227241 1.0510302e-38
7.8019557 -1.7232704 1.1591142 1.0602497e-38
7.8492808 -1.7283945 1.2085756 1.0418106e-38
7.8441477 -1.7289125 1.2523593 1.0694693e-38
7.8387861 -1.7294104 1.2961158 9.4039542e-39
7.7810988 -1.7252895 1.3330957 8.9429761e-39
7.9141693 -1.7119101 -1.6460887 8.7585848e-39
7.9410381 -1.7151384 -1.6056988 9.4039542e-39
7.950592 -1.7169063 -1.5613761 1.0233715e-38
7.9599147 -1.7186545 -1.5170033 1.1063476e-38
7.9518447 -1.7189279 -1.4690604 9.8649324e-39
7.9263296 -1.7177157 -1.4178191 8.6663892e-39
7.9520988 -1.7208569 -1.3769155 8.2976067e-39
7.8743963 -1.7151917 -1.316283 9.7727368e-39
7.8824415 -1.7168179 -1.2723116 1.1432258e-38
7.8557673 -1.7154801 -1.2221594 1.1708845e-38
7.8633223 -1.7170606 -1.1782863 9.7727368e-39
7.8533721 -1.7171428 -1.1314858 1.2169823e-38
7.8085828 -1.7142352 -1.0792339 1.0418106e-38
7.8326979 -1.7172292 -1.038316 1.0141519e-38
7.6834273 -1.7053286 -0.97102571 9.957128e-39
7.8109994 -1.7172126 -0.94573075 9.8649324e-39
7.5742884 -1.6977404 -0.86802733 9.957128e-39
7.5452895 -1.6961319 -0.82095081 1.1063476e-38
7.4639149 -1.6899921 -0.76745653 9.957128e-39
7.3995867 -1.6853073 -0.71700621 1.1247867e-38
7.3349538 -1.6805807 -0.66725963 1.1340062e-38
7.0264025 -1.6546906 -0.5905419 1.0325911e-38
7.1699724 -1.6679813 -0.56611383 1.1708845e-38
7.2089624 -1.6722124 -0.52943569 1.0049324e-38
6.7248902 -1.6309279 -0.44129881 1.0694693e-38
6.571456 -1.6183487 -0.38887572 1.097128e-38
8.1448412 -1.7564024 -0.48847476 1.1340062e-38
8.200923 -1.7622471 -0.44736779 1.0510302e-38
6.5456681 -1.6184125 -0.27479562 1.0325911e-38
6.3037705 -1.5979964 -0.22039731 1.097128e-38
8.2631445 -1.7705532 -0.31371936 1.0141519e-38
6.3432736 -1.6029483 -0.15108113 1.1524454e-38
6.4152131 -1.6100177 -0.11903519 1.0418106e-38
6.1896949 -1.5909214 -0.071343221 1.0786889e-38
6.2612567 -1.5979557 -0.03936949 1.0694693e-38
6.1926932 -1.5926415 -0.0011108917 1.244641e-38
6.2114177 -1.5950233 0.033415958 1.2630801e-38
6.0899444 -1.5850083 0.072202727 1.2907388e-38
6.1433029 -1.5904497 0.10553978 1.1247867e-38
6.1264653 -1.5896784 0.14073202 1.2815193e-38
6.1094437 -1.5888869 0.17574362 1.4382518e-38
6.1097479 -1.5896317 0.21043292 1.1616649e-38
6.039835 -1.5841275 0.2453184 1.2354214e-38
5.8997078 -1.5723518 0.27929491 1.1801041e-38
5.7243953 -1.5574065 0.31152797 1.2354214e-38
5.7765207 -1.5627384 0.34487513 1.2999584e-38
5.9159932 -1.5758932 0.38036901 1.2722997e-38
5.6351814 -1.5514466 0.40745881 1.1893236e-38
5.7917938 -1.5661532 0.44418487 1.2354214e-38
5.7732072 -1.5651689 0.47660828 1.3460562e-38
5.7369609 -1.5625937 0.50815463 1.2999584e-38
5.7180495 -1.5615706 0.5401057 1.4105931e-38
5.698976 -1.5605291 0.57186532 1.3552758e-38
5.6972227 -1.561046 0.60439575 1.2815193e-38
5.7302504 -1.5647037 0.63902664 1.2262019e-38
5.6932077 -1.562034 0.66942763 1.2538606e-38
5.7084088 -1.5640857 0.70316589 1.2169823e-38
7.7308869 -1.7480597 0.89006358 1.1432258e-38
7.7797728 -1.7533953 0.93753773 1.2262019e-38
7.7586231 -1.7523799 0.97948867 1.1063476e-38
7.7721281 -1.7545127 1.0244474 1.1985432e-38
7.8376613 -1.7613875 1.0746597 1.0694693e-38
7.7984071 -1.7587233 1.1148509 1.2169823e-38
7.706748 -1.7512676 1.1490122 1.1432258e-38
7.7193322 -1.7533203 1.1940638 1.0233715e-38
7.7142859 -1.7537636 1.2372098 1.0694693e-38
7.8306251 -1.765328 1.2954094 9.0351717e-39
7.894918 -1.7746979 -1.6833313 8.9429761e-39
7.904892 -1.7764815 -1.6391963 8.3898023e-39
7.9317331 -1.7797812 -1.5987936 9.5883455e-39
7.9412656 -1.781527 -1.5544654 1.1432258e-38
7.9505672 -1.783252 -1.5100874 1.1616649e-38
7.9424829 -1.7834088 -1.4621463 9.7727368e-39
7.9341316 -1.7835377 -1.4143384 9.957128e-39
7.9083247 -1.7820851 -1.363331 8.4819979e-39
7.8822179 -1.7805982 -1.3126402 1.0602497e-38
7.8730373 -1.7806379 -1.2654208 1.1340062e-38
7.8635945 -1.7806503 -1.2183406 1.0141519e-38
7.8538914 -1.7806355 -1.1714007 9.3117586e-39
7.8266592 -1.7790232 -1.121722 1.1708845e-38
7.8337064 -1.7805244 -1.0779485 1.0694693e-38
7.5637579 -1.7567812 -0.99095106 9.7727368e-39
7.6740003 -1.7676694 -0.96420974 1.0694693e-38
7.5589561 -1.758001 -0.90361929 9.3117586e-39
7.4608479 -1.7498562 -0.84669799 8.4819979e-39
7.3677039 -1.7429496 -0.74950892 9.8649324e-39
7.1296015 -1.721907 -0.67801714 9.8649324e-39
6.8909802 -1.7007673 -0.60905677 1.0786889e-38
6.6866474 -1.6827309 -0.5465703 9.219563e-39
6.7603388 -1.6902462 -0.5163061 1.0233715e-38
6.7468414 -1.6897405 -0.47635543 1.1340062e-38
6.6111712 -1.6779596 -0.42470232 1.0418106e-38
6.5448899 -1.6725593 -0.38090932 1.097128e-38
6.5306664 -1.6719582 -0.34236699 1.0879084e-38
6.4638963 -1.6664897 -0.29973111 1.1616649e-38
6.327065 -1.6545148 -0.2525003 1.1063476e-38
6.347075 -1.6570613 -0.21785209 1.0418106e-38
6.3319783 -1.6563512 -0.18071762 1.1247867e-38
6.2817407 -1.6523706 -0.14164878 1.2077628e-38
6.1439033 -1.6402264 -0.098314814 1.1524454e-38
6.1806159 -1.644317 -0.065132067 1.1893236e-38
6.2171631 -1.6483994 -0.031572606 1.1708845e-38
6.1486092 -1.642675 0.0064742379 1.1801041e-38
6.0798454 -1.6369171 0.04379262 1.1893236e-38
6.0808568 -1.6376743 0.078376114 1.2538606e-38
6.0117006 -1.6318586 0.11460206 1.2262019e-38
6.0648398 -1.6374971 0.14787501 1.1616649e-38
5.8903112 -1.6217735 0.18463221 1.3737149e-38
5.6105843 -1.5961283 0.22035111 1.3368366e-38
5.8556967 -1.6198028 0.25188866 1.2169823e-38
5.61062 -1.5973612 0.28458208 1.3737149e-38
5.6103864 -1.5979539 0.3166973 1.3552758e-38
5.6449833 -1.6018339 0.34928071 1.2354214e-38
5.7668915 -1.6139704 0.38386396 1.3276171e-38
5.6786618 -1.6062562 0.41470641 1.3552758e-38
5.6602559 -1.6051357 0.44666803 1.2354214e-38
5.6416869 -1.603996 0.47844076 1.3276171e-38
5.7103853 -1.6111332 0.51349741 1.3829344e-38
5.691474 -1.6099629 0.54534954 1.4105931e-38
5.7248335 -1.6137593 0.57964593 1.244641e-38
7.732378 -1.8054782 0.72396588 1.1616649e-38
7.747272 -1.8077288 0.76829803 1.2354214e-38
7.6920838 -1.8032978 0.80818343 1.097128e-38
7.6890731 -1.8038385 0.85124099 1.1616649e-38
7.6858373 -1.8043578 0.89428258 1.244641e-38
7.6823769 -1.8048557 0.93730694 1.3368366e-38
7.7309885 -1.8103417 0.98487657 1.1247867e-38
7.6747837 -1.805787 1.0232995 1.0049324e-38
7.688066 -1.8078922 1.0679696 1.0602497e-38
7.6488881 -1.8049597 1.1074128 1.0510302e-38
7.6965065 -1.8103698 1.1559047 1.1432258e-38
7.7090678 -1.8124146 1.200963 1.0694693e-38
7.7213831 -1.8144393 1.2461786 9.6805411e-39
7.9336867 -1.8248647 -1.7326257 8.2054111e-39
7.9808087 -1.8318404 -1.6031731 8.4819979e-39
7.9483147 -1.8304912 -1.5031288 9.6805411e-39
7.9573588 -1.8321881 -1.4586968 1.0418106e-38
7.9661727 -1.8338634 -1.4142174 9.1273674e-39
7.9231992 -1.8306565 -1.3597164 8.5741936e-39
7.8626914 -1.8257847 -1.3024784 9.4039542e-39
7.8706923 -1.8273712 -1.2584975 1.0602497e-38
7.8342571 -1.8255805 -1.1615226 8.9429761e-39
7.8242602 -1.8254565 -1.1148199 9.4961499e-39
7.4119754 -1.7887219 -0.91839021 8.3898023e-39
6.8916621 -1.7414321 -0.72136176 8.4819979e-39
6.8793001 -1.7409744 -0.68025631 8.3898023e-39
6.8840814 -1.7421515 -0.64145094 8.8507805e-39
6.8539023 -1.7399846 -0.59851617 8.4819979e-39
6.5800352 -1.7144781 -0.52847195 9.219563e-39
6.5840316 -1.7155497 -0.4912414 1.0325911e-38
6.570426 -1.7149324 -0.45221215 1.1985432e-38
6.5740252 -1.7159642 -0.41503254 1.0602497e-38
6.3683262 -1.6968746 -0.35869893 1.0233715e-38
6.4411759 -1.7045504 -0.32859442 1.1340062e-38
6.2697272 -1.6887063 -0.27798292 1.1340062e-38
6.2898726 -1.6913034 -0.24370515 1.1432258e-38
6.1702132 -1.6804093 -0.19940829 9.8649324e-39
6.2074242 -1.6846486 -0.16660661 1.0694693e-38
6.2794056 -1.6922575 -0.13551377 1.1432258e-38
6.1415958 -1.6795692 -0.092248976 1.1063476e-38
6.1083779 -1.6769902 -0.055606026 1.0418106e-38
6.214797 -1.68795 -0.025468489 1.0325911e-38
5.9189711 -1.6598709 0.02133726 9.5883455e-39
5.8152013 -1.6504023 0.058594722 1.1893236e-38
5.9035988 -1.6596105 0.089337379 1.0786889e-38
6.0093355 -1.6705244 0.12060442 1.1801041e-38
5.730082 -1.6439264 0.15976535 1.2722997e-38
5.6080556 -1.6326175 0.19403709 1.4105931e-38
5.6083083 -1.6332294 0.22615178 1.2722997e-38
5.6083937 -1.6338248 0.25826767 1.4382518e-38
5.7307734 -1.6463896 0.29080129 1.3552758e-38
5.6255574 -1.6366807 0.32265115 1.2354214e-38
5.7650795 -1.6509519 0.3568067 1.1616649e-38
5.642045 -1.639477 0.38739687 1.2999584e-38
5.6762671 -1.6434304 0.42054486 1.1708845e-38
5.6928234 -1.6456529 0.45353705 1.244641e-38
5.6567564 -1.642698 0.48487318 1.097128e-38
5.6904516 -1.6466113 0.51865 1.2354214e-38
7.6462445 -1.8401321 0.64029831 1.0049324e-38
5.7048712 -1.6492279 0.5846231 1.0602497e-38
7.7291098 -1.8498927 0.73085129 1.1801041e-38
7.7439771 -1.8521575 0.77519178 1.1247867e-38
7.5142469 -1.8302035 0.80341917 1.0141519e-38
7.5287275 -1.8324133 0.84681278 1.0602497e-38
7.5604162 -1.8363338 0.89172077 1.2169823e-38
7.6790218 -1.8488935 0.94417059 1.1063476e-38
7.6230412 -1.8441204 0.98258525 1.0694693e-38
7.5668864 -1.8393197 1.0204303 1.0141519e-38
7.5627866 -1.8396941 1.062845 1.0786889e-38
7.5758657 -1.8417815 1.1070428 1.0510302e-38
7.727818 -1.8577323 1.166572 1.0049324e-38
7.9367194 -1.8856977 -1.7250494 8.3898023e-39
8.0008335 -1.894382 -1.5990275 8.5741936e-39
7.9683275 -1.892707 -1.4986566 8.2054111e-39
7.9430699 -1.8909671 -1.4470598 9.0351717e-39
7.9518332 -1.8926069 -1.4025691 9.1273674e-39
7.9088254 -1.8890896 -1.3481147 8.9429761e-39
7.8826814 -1.8872443 -1.2973737 8.8507805e-39
7.8369679 -1.8849429 -1.1529582 8.4819979e-39
6.8077917 -1.7866281 -0.70166981 9.219563e-39
6.864748 -1.7930129 -0.66980398 9.1273674e-39
6.4049773 -1.747945 -0.53726977 8.2054111e-39
6.6216078 -1.7710571 -0.48666388 1.0418106e-38
6.5557928 -1.7650307 -0.44209909 1.1893236e-38
6.4200721 -1.7519163 -0.39158031 9.957128e-39
6.2666073 -1.7369797 -0.34093395 1.0141519e-38
6.2522192 -1.7361174 -0.30378807 1.1616649e-38
6.1853313 -1.7299241 -0.26263472 1.1340062e-38
6.1007628 -1.7219226 -0.22090061 1.0879084e-38
6.138073 -1.7262962 -0.18852793 1.1432258e-38
6.0879631 -1.721781 -0.15019362 1.1155671e-38
6.1773019 -1.7314575 -0.12059476 1.0510302e-38
6.0220289 -1.7162176 -0.077009954 1.1616649e-38
5.8140898 -1.6955779 -0.032547586 1.0879084e-38
5.8504753 -1.6998465 -0.00076570909 1.0418106e-38
5.8168015 -1.6969621 0.034018658 1.0602497e-38
5.8004193 -1.6958401 0.067876846 1.2077628e-38
5.8013391 -1.6964862 0.10108382 1.097128e-38
5.7321553 -1.6899502 0.1358189 1.1801041e-38
5.7152386 -1.6887614 0.16895513 1.2722997e-38
5.5932374 -1.6767853 0.20309114 1.5304475e-38
5.5934572 -1.6773412 0.2352071 1.2999584e-38
5.5935097 -1.67788 0.26732406 1.5581061e-38
5.6108809 -1.6802006 0.29952037 1.3276171e-38
5.6105981 -1.6807065 0.33172873 1.1801041e-38
5.6276312 -1.6829969 0.36419874 1.2538606e-38
5.6270108 -1.6834694 0.39649493 1.1801041e-38
5.6611819 -1.6875336 0.42968228 1.0049324e-38
