# .PCD v0.7 - Point Cloud Data file format
VERSION 0.7
FIELDS x y z rgb
SIZE 4 4 4 4
TYPE F F F F
COUNT 1 1 1 1
WIDTH 1062
HEIGHT 1
VIEWPOINT 9.94 15.1484 4.8792 0.997597 0.0563353 -0.0115003 -0.0386678
POINTS 1062
DATA ascii
9.3796282 0.95459002 0.31134349 1.0879084e-38
9.4121408 0.95389867 0.36174196 1.1432258e-38
9.391777 0.95512879 0.40926993 1.0325911e-38
9.4062271 0.9550963 0.45893151 9.7727368e-39
9.4028902 0.95570892 0.5075016 1.1340062e-38
9.4343271 0.95506579 0.55875355 1.2354214e-38
9.4129591 0.95633042 0.60602754 1.3460562e-38
9.4438505 0.95571166 0.65769756 1.1801041e-38
9.4569645 0.9557358 0.70808679 1.0510302e-38
9.452322 0.95639914 0.75691879 1.0786889e-38
9.4299507 0.95769805 0.80391735 1.0602497e-38
9.4248066 0.95837849 0.8526063 9.3117586e-39
9.4543161 0.95782053 0.90525019 9.5883455e-39
9.4311991 0.95914423 0.95198256 1.1155671e-38
9.4950094 0.95736885 1.0093722 1.2262019e-38
9.453949 0.95933181 1.0538681 9.6805411e-39
9.4823141 0.95882499 1.1073921 9.5883455e-39
9.4929781 0.95894969 1.1587985 1.1985432e-38
9.5033598 0.9590863 1.210351 9.4961499e-39
9.4960899 0.959849 1.2594181 1.097128e-38
9.4885616 0.96062076 1.3084465 1.1155671e-38
9.5328007 0.95956767 1.3658701 1.0694693e-38
9.50739 0.96097177 1.4121866 1.1616649e-38
9.4990616 0.96177369 1.4612718 9.1273674e-39
9.5250683 0.96137077 1.5164804 1.0510302e-38
9.533473 0.96158832 1.5688312 1.0141519e-38
9.5243254 0.96242177 1.6180506 9.5883455e-39
9.5224857 0.96351498 1.7197876 1.0141519e-38
9.5367346 0.96405286 1.8253058 9.0351717e-39
9.5090752 0.96553183 1.8708221 1.0325911e-38
9.53265 0.96523362 1.9275208 1.1893236e-38
9.1188602 0.94827324 -2.2980494 8.6663892e-39
9.1514997 0.94827598 -2.1565287 9.1273674e-39
9.1819143 0.94836855 -2.0145133 8.4819979e-39
9.1410675 0.9513163 -1.8589506 9.4961499e-39
9.2017183 0.94932282 -1.8212688 8.4819979e-39
9.1575766 0.95238668 -1.6668694 8.4819979e-39
9.1827374 0.95181572 -1.6223785 8.4819979e-39
9.1556244 0.95332557 -1.5694823 9.7727368e-39
9.19767 0.95208466 -1.5274581 8.9429761e-39
9.1700058 0.95361316 -1.4748492 1.0879084e-38
9.1768236 0.95377171 -1.4274775 1.2354214e-38
9.23561 0.95187312 -1.3871614 9.4039542e-39
9.1723013 0.95480686 -1.3303583 1.1247867e-38
9.2306499 0.95292974 -1.2895198 1.2077628e-38
9.2016182 0.95450407 -1.2376541 1.2538606e-38
9.2420969 0.95333672 -1.1941168 1.2907388e-38
9.2649069 0.95286793 -1.1482786 1.2907388e-38
9.235074 0.95446974 -1.0967842 1.2999584e-38
9.2049541 0.95607954 -1.0456302 1.2354214e-38
9.2619925 0.95426881 -1.0029782 1.2722997e-38
9.2663412 0.95452631 -0.95513195 1.1155671e-38
9.2004204 0.95753247 -0.90146881 1.1155671e-38
9.2042379 0.95780754 -0.85394669 1.0325911e-38
9.2428465 0.95672506 -0.80893564 1.2262019e-38
9.2461805 0.95702064 -0.76119268 1.244641e-38
9.2317314 0.95800841 -0.71235138 9.3117586e-39
9.3222456 0.95491362 -0.66961628 8.5741936e-39
9.3073072 0.95592213 -0.62056172 9.4039542e-39
9.2745609 0.95761973 -0.57087231 1.1340062e-38
9.2239981 0.96000439 -0.52082527 9.219563e-39
9.2784863 0.95831913 -0.47505113 1.0786889e-38
9.2800722 0.95868349 -0.42712659 9.957128e-39
9.2638483 0.95973521 -0.37875655 9.4961499e-39
9.3351774 0.9574098 -0.33229372 1.0325911e-38
9.300889 0.95915806 -0.28356659 1.0879084e-38
9.354166 0.95753515 -0.23601313 1.1340062e-38
9.3896313 0.95660138 -0.18783534 9.8649324e-39
9.337018 0.95905042 -0.13939957 1.0233715e-38
9.3368473 0.95948476 -0.09117353 1.1155671e-38
9.3364239 0.95992881 -0.042949129 1.2169823e-38
9.3357477 0.96038252 0.0052723046 1.1524454e-38
9.3523817 0.96017534 0.053879809 9.1273674e-39
9.3336401 0.96131891 0.101701 1.0418106e-38
9.3322086 0.96180147 0.14990561 9.957128e-39
9.3656301 0.96095812 0.19943462 9.3117586e-39
9.3812342 0.9607951 0.24856362 9.8649324e-39
9.4141235 0.95997769 0.2987158 9.7727368e-39
9.3765793 0.9618333 0.34545478 1.1985432e-38
9.4089413 0.96103919 0.39594865 1.4013736e-38
9.4059687 0.96158439 0.44454324 1.2630801e-38
9.4027405 0.96213919 0.49312147 1.2907388e-38
9.3992605 0.96270359 0.54168212 1.2169823e-38
9.4130354 0.96261799 0.59162503 1.2077628e-38
9.4440432 0.96188563 0.64322406 1.0879084e-38
9.4397755 0.96248215 0.69199872 1.1893236e-38
9.4002819 0.96440065 0.73739767 1.1432258e-38
9.4654303 0.96239364 0.79301322 1.1801041e-38
9.4603796 0.96302116 0.84189767 8.5741936e-39
9.4201574 0.96496367 0.88685304 1.097128e-38
9.4669571 0.96365345 0.94162601 1.1708845e-38
9.4436932 0.96496111 0.98838234 1.2815193e-38
9.489893 0.96367979 1.0438251 1.1616649e-38
9.5009432 0.96371096 1.0951501 1.0602497e-38
9.4943104 0.96440083 1.1442161 1.1616649e-38
9.4700336 0.96574539 1.1907476 1.1432258e-38
9.4976501 0.9651652 1.2448295 1.1985432e-38
9.5075951 0.96524239 1.2965566 1.1616649e-38
9.5346031 0.96469063 1.3511975 1.1616649e-38
9.5266304 0.96543342 1.4004357 1.0418106e-38
9.5184002 0.96618569 1.4496315 9.957128e-39
9.5272141 0.96631044 1.5018271 1.2538606e-38
9.5184536 0.96708316 1.5510243 1.1801041e-38
9.543972 0.96659702 1.6066251 1.0418106e-38
9.5346632 0.96739149 1.6559083 1.0233715e-38
9.5250969 0.96819544 1.7051423 1.0510302e-38
9.5324879 0.96837908 1.7578213 1.1524454e-38
9.5223875 0.96920335 1.8070421 1.0325911e-38
9.5292072 0.96941042 1.8598857 1.1155671e-38
9.5357323 0.96962988 1.912854 1.1985432e-38
9.5193243 0.97160423 2.0644205 8.4819979e-39
9.5246964 0.97187066 2.1176927 8.5741936e-39
9.1317921 1.0008729 -2.3104613 8.9429761e-39
9.1429558 1.0002991 -2.2632625 9.957128e-39
9.1702995 0.99840999 -1.9719673 8.7585848e-39
9.1614866 0.99781263 -1.6278894 9.6805411e-39
9.1690779 0.9973805 -1.5805441 8.2054111e-39
9.1590595 0.99764091 -1.5305088 9.1273674e-39
9.2008972 0.99586159 -1.4882969 9.5883455e-39
9.1729765 0.99682689 -1.4358095 1.4105931e-38
9.1969671 0.99574929 -1.390784 1.097128e-38
9.1859026 0.99605185 -1.3409696 1.0602497e-38
9.2094202 0.99499232 -1.2956949 9.5883455e-39
9.2327127 0.99394119 -1.2502065 1.1063476e-38
9.1859808 0.99565077 -1.1964561 9.8649324e-39
9.2611532 0.99255306 -1.1566712 1.2630801e-38
9.2662783 0.99221754 -1.1088098 1.1155671e-38
9.2361956 0.99327183 -1.0574466 9.957128e-39
9.2582903 0.99226665 -1.0113634 1.0879084e-38
9.2801514 0.99127018 -0.96507329 1.2262019e-38
9.2317629 0.99304944 -0.91272658 1.0694693e-38
9.2005911 0.99414963 -0.86228025 1.2815193e-38
9.2216949 0.99318331 -0.8160193 9.8649324e-39
9.2075138 0.99361253 -0.76718169 1.0602497e-38
9.2456636 0.99197108 -0.72179765 1.0418106e-38
9.2835855 0.99033761 -0.67603046 9.0351717e-39
9.2511148 0.9914912 -0.62623417 9.7727368e-39
9.3236465 0.98848546 -0.58171189 1.1524454e-38
9.3257618 0.98826861 -0.53353053 1.1985432e-38
9.3100739 0.98875779 -0.48470277 8.2054111e-39
9.2765713 0.98995399 -0.43550584 1.1801041e-38
9.3305988 0.98767811 -0.38892901 9.219563e-39
9.331706 0.98750132 -0.34071377 1.1432258e-38
9.3676863 0.98593974 -0.29302925 1.0418106e-38
9.350728 0.98648006 -0.24444498 1.0141519e-38
9.351079 0.98633301 -0.19612615 1.1616649e-38
9.3160505 0.9875924 -0.14782241 1.1340062e-38
9.315896 0.98746592 -0.099686563 9.957128e-39
9.3506174 0.98595214 -0.051167693 1.2722997e-38
9.3323956 0.98654413 -0.0031362372 1.2999584e-38
9.3490448 0.98574847 0.045459647 1.1616649e-38
9.3303223 0.98636097 0.093297563 8.7585848e-39
9.3464622 0.98558509 0.14206533 1.1985432e-38
9.415 0.98272049 0.19296587 8.6663892e-39
9.3604174 0.98476237 0.239383 8.8507805e-39
9.4284143 0.98191702 0.291091 8.3898023e-39
9.3908834 0.98327982 0.33795366 1.0694693e-38
9.3881874 0.98325336 0.38647529 1.3276171e-38
9.4027662 0.98253721 0.43609399 1.1247867e-38
9.4346027 0.98113126 0.48708397 1.0786889e-38
9.4136095 0.98183507 0.5345372 1.2077628e-38
9.392375 0.98254901 0.581788 1.1432258e-38
9.4059057 0.98187345 0.63179326 1.2722997e-38
9.4366598 0.98050845 0.68353117 1.3091779e-38
9.4321537 0.98055327 0.73228806 1.1524454e-38
9.4273939 0.98060828 0.78102076 1.0418106e-38
9.4223804 0.98067343 0.82972783 1.1616649e-38
9.4345675 0.98004955 0.88034511 1.3644953e-38
9.4290333 0.98013532 0.92908847 1.2077628e-38
9.4406796 0.97953236 0.97992206 1.2354214e-38
9.4346247 0.9796387 1.0286962 1.1247867e-38
9.4631386 0.97835833 1.0820429 1.2999584e-38
9.4739485 0.97778738 1.1333271 1.0602497e-38
9.484478 0.97722721 1.1847583 1.0879084e-38
9.5120993 0.9759801 1.2389112 1.0141519e-38
9.5046883 0.97613937 1.2880561 1.0510302e-38
9.5143652 0.97561187 1.3399193 1.0510302e-38
9.5064259 0.97579205 1.3890749 1.1432258e-38
9.5155458 0.97528619 1.4411277 1.0510302e-38
9.5070753 0.97548747 1.490288 1.0049324e-38
9.5156345 0.97500342 1.5425241 1.2907388e-38
9.5239019 0.97453052 1.594895 1.097128e-38
9.5146284 0.97476363 1.6440971 1.0418106e-38
9.5050964 0.97500718 1.6932501 1.1155671e-38
9.5469561 0.97317922 1.7527995 9.219563e-39
9.5196581 0.97413832 1.7985479 1.1340062e-38
9.5093184 0.97441387 1.847725 9.6805411e-39
9.5158796 0.97400743 1.9006001 1.1801041e-38
9.5221453 0.97361243 1.9535986 1.1708845e-38
9.5109959 0.97392017 2.0027866 8.3898023e-39
9.5220757 0.97318661 2.1092074 8.6663892e-39
9.1389608 1.0472559 -2.2692668 1.0694693e-38
9.132823 1.0470073 -2.2180862 1.0141519e-38
9.1540031 1.0453029 -2.1236219 9.0351717e-39
9.1814003 1.0438405 -2.079982 8.9429761e-39
9.1397982 1.0448844 -2.0217726 9.8649324e-39
9.1494846 1.0440668 -1.9745339 8.5741936e-39
9.1684685 1.041519 -1.7819585 1.0233715e-38
9.1942005 1.0401139 -1.7376144 1.1524454e-38
9.2023993 1.0393506 -1.6900942 9.8649324e-39
9.1756859 1.0398705 -1.6368109 1.0602497e-38
9.1660099 1.0397669 -1.5866194 8.7585848e-39
9.2081404 1.0377554 -1.544606 9.7727368e-39
9.1979551 1.0376714 -1.4944272 1.0786889e-38
9.1874924 1.0375993 -1.4443936 1.1985432e-38
9.1941566 1.0368952 -1.3969121 1.1708845e-38
9.200573 1.0362002 -1.3493962 1.1708845e-38
9.2241659 1.0348678 -1.3040701 1.1616649e-38
9.2300959 1.0341899 -1.2563981 1.1801041e-38
9.2532225 1.0328722 -1.2107357 1.1985432e-38
9.2586632 1.0322117 -1.1629125 1.3276171e-38
9.263854 1.0315604 -1.1150614 1.4105931e-38
9.2513161 1.0315716 -1.0654178 1.2999584e-38
9.2559977 1.0309403 -1.0176063 1.0694693e-38
9.2604275 1.0303184 -0.96977079 1.3091779e-38
9.2821102 1.0290493 -0.92340356 1.2538606e-38
9.1984978 1.0317336 -0.86843657 1.244641e-38
9.2722158 1.028509 -0.82613373 1.1432258e-38
9.2931681 1.0272647 -0.7794311 1.1247867e-38
9.2612915 1.028011 -0.72915614 1.0049324e-38
9.299284 1.0261223 -0.68336016 1.0879084e-38
9.2493429 1.027555 -0.63248181 1.0510302e-38
9.3219385 1.0243536 -0.58807808 1.1063476e-38
9.3241205 1.0238147 -0.53990221 1.1340062e-38
9.2558384 1.0259504 -0.48905864 1.1985432e-38
9.2926149 1.0240999 -0.44237468 1.3276171e-38
9.294035 1.0235916 -0.39435413 8.3898023e-39
9.3303261 1.0217545 -0.34710312 1.0694693e-38
9.3663731 1.0199231 -0.29947853 1.1985432e-38
9.3494797 1.020111 -0.25086904 1.0141519e-38
9.3674612 1.0189663 -0.20266496 1.1985432e-38
9.3500605 1.0191753 -0.15423498 1.0141519e-38
9.3148422 1.0200694 -0.10606068 1.2262019e-38
9.3671951 1.0176038 -0.057435777 1.0510302e-38
9.3314724 1.0185198 -0.0095409909 1.2538606e-38
9.3481894 1.0174202 0.039026044 1.3460562e-38
9.3470898 1.0170057 0.087332092 1.0325911e-38
9.3457365 1.016601 0.1356318 1.2630801e-38
9.3616858 1.0155275 0.18454786 1.1340062e-38
9.4124746 1.0131038 0.23507079 1.0879084e-38
9.3928022 1.0134056 0.28290343 1.0879084e-38
9.3728838 1.0137185 0.33054054 1.0418106e-38
9.4053316 1.0119987 0.38095602 1.3183975e-38
9.4199734 1.010968 0.43064103 1.1155671e-38
9.4343491 1.0099459 0.48049402 1.2169823e-38
9.4309378 1.0096158 0.52924627 1.3368366e-38
9.3922482 1.0106633 0.57526201 1.2354214e-38
9.4058466 1.0096698 0.62524337 1.2169823e-38
9.4366722 1.0080001 0.67692959 1.244641e-38
9.4322329 1.0077093 0.72569168 1.1708845e-38
9.4624987 1.0060563 0.7778815 1.2354214e-38
9.457531 1.0057844 0.82677776 1.3091779e-38
9.4348469 1.0062097 0.87373859 1.4382518e-38
9.4293785 1.0059584 0.92248881 1.4290323e-38
9.4410934 1.0050293 0.97330147 1.3829344e-38
9.4699612 1.0034208 1.0264494 1.1432258e-38
9.4636936 1.0031984 1.0753819 1.2077628e-38
9.5093822 1.0009185 1.1313776 1.2815193e-38
9.4851732 1.0014049 1.1780586 1.1247867e-38
9.4954901 1.0005221 1.2296168 9.957128e-39
9.5055237 0.99964905 1.2813195 1.1155671e-38
9.5152712 0.99878544 1.333165 1.1985432e-38
9.5073986 0.99862242 1.3823313 1.0418106e-38
9.5165892 0.99777842 1.4343671 1.0786889e-38
9.5081844 0.9976356 1.483539 1.3183975e-38
9.5341043 0.99611962 1.5388521 1.1985432e-38
9.5251541 0.99599695 1.5881145 9.1273674e-39
9.5159464 0.99588454 1.6373295 9.8649324e-39
9.5064812 0.99578249 1.6864957 1.0510302e-38
9.5484228 0.99361318 1.7459753 1.097128e-38
9.5555916 0.99283868 1.7988551 9.7727368e-39
9.5452805 0.9927671 1.848227 1.0510302e-38
9.5175457 0.99339885 1.8938196 1.1708845e-38
9.5238838 0.99265516 1.9468058 1.2262019e-38
9.5299244 0.99192172 1.9999145 8.3898023e-39
9.140213 1.0975462 -2.2705514 9.6805411e-39
9.1580248 1.0929084 -2.0266504 9.0351717e-39
9.1676865 1.0917882 -1.9793192 9.5883455e-39
9.1771011 1.090676 -1.9319378 8.2054111e-39
9.1865635 1.0879496 -1.7863861 8.3898023e-39
9.2122736 1.0863075 -1.7419374 8.7585848e-39
9.1858025 1.0863681 -1.6884476 9.8649324e-39
9.1839848 1.0848271 -1.5907032 8.2054111e-39
9.1913662 1.0837857 -1.5432407 8.7585848e-39
9.1879873 1.0823038 -1.4457183 9.5883455e-39
9.2294197 1.0801327 -1.4030223 8.4819979e-39
9.218399 1.0797024 -1.353022 9.7727368e-39
9.2419634 1.0781204 -1.3075922 9.8649324e-39
9.2478609 1.0771266 -1.2598288 1.0786889e-38
9.2535086 1.0761412 -1.2120352 1.2999584e-38
9.2589064 1.0751643 -1.1642125 1.2907388e-38
9.2465811 1.0747852 -1.114517 1.2722997e-38
9.2689495 1.0732358 -1.0684849 8.2054111e-39
9.2561054 1.0728773 -1.0189211 1.2077628e-38
9.2604923 1.071936 -0.9710868 1.392154e-38
9.2646284 1.0710032 -0.92323005 1.0233715e-38
9.2510014 1.0706775 -0.87396544 1.1616649e-38
9.289669 1.0685631 -0.8287493 1.1524454e-38
9.2755327 1.0682563 -0.77953809 1.244641e-38
9.2786665 1.0673579 -0.73160452 1.0418106e-38
9.2990875 1.0658627 -0.68467462 1.1063476e-38
9.2690134 1.0653231 -0.58687818 9.0351717e-39
9.2711382 1.0644611 -0.5389809 9.8649324e-39
9.2554579 1.0642197 -0.49042118 1.0786889e-38
9.2746372 1.0627631 -0.44315574 1.0879084e-38
9.3473864 1.0586327 -0.34880182 1.1340062e-38
9.3658285 1.0571897 -0.3007803 9.4961499e-39
9.3664551 1.0563725 -0.25237888 9.3117586e-39
9.3492613 1.0561857 -0.20387493 1.0325911e-38
9.3142471 1.0566341 -0.15554585 1.0510302e-38
9.3843813 1.0533501 -0.10707902 9.7727368e-39
9.331295 1.0544454 -0.059111416 1.0049324e-38
9.3482227 1.0530485 -0.01062514 1.1708845e-38
9.3297682 1.0529157 0.037320621 8.9429761e-39
9.3461866 1.0515339 0.085981883 9.219563e-39
9.3447886 1.0507903 0.13427629 1.0694693e-38
9.4133596 1.047523 0.1851081 8.5741936e-39
9.4114428 1.046792 0.23375337 8.2976067e-39
9.4092712 1.0460702 0.28238803 9.7727368e-39
9.4068441 1.0453577 0.33101082 1.1155671e-38
9.4041643 1.0446544 0.37962037 1.2538606e-38
9.4187613 1.0433204 0.42931125 1.2815193e-38
9.4330921 1.0419931 0.47916985 1.2354214e-38
9.429636 1.0413151 0.52791536 1.097128e-38
9.408412 1.0412902 0.57527095 1.1893236e-38
9.4044523 1.0406321 0.62388611 1.0879084e-38
9.4352331 1.038691 0.67558938 9.219563e-39
9.4657269 1.0367545 0.72763664 1.0325911e-38
9.4609699 1.0361198 0.77655035 1.097128e-38
9.4384861 1.0361444 0.82360929 1.1155671e-38
9.4332266 1.03553 0.8723793 1.1893236e-38
9.4451628 1.0342729 0.92313367 1.1340062e-38
9.4742622 1.03237 0.97614527 1.0233715e-38
9.5379162 1.0291636 1.0338818 9.7727368e-39
9.5141392 1.0292351 1.080884 9.5883455e-39
9.5075321 1.028662 1.1300477 1.1616649e-38
9.5006685 1.0280985 1.1791762 9.8649324e-39
9.5109262 1.0268862 1.230828 1.0879084e-38
9.5208979 1.0256817 1.2826241 1.1893236e-38
9.513236 1.0251455 1.3318211 1.1801041e-38
9.5399866 1.0232961 1.3866426 1.0049324e-38
9.5317793 1.0227776 1.4359384 1.1432258e-38
9.5060091 1.0229323 1.4821764 9.8649324e-39
9.5318804 1.0211059 1.5375028 1.0049324e-38
9.5574293 1.0192857 1.5931451 9.8649324e-39
9.5481405 1.018804 1.6425301 8.6663892e-39
9.5558319 1.0176654 1.6952419 8.7585848e-39
9.5460091 1.0172029 1.7446175 1.0879084e-38
9.5359278 1.0167503 1.793941 1.0325911e-38
9.5427723 1.0156384 1.8468579 1.0879084e-38
9.532155 1.0152051 1.8961632 9.957128e-39
9.5384254 1.0141109 1.9492391 9.1273674e-39
9.2206545 1.1508195 -1.7858201 8.7585848e-39
9.1853218 1.1494359 -1.6816471 9.1273674e-39
9.2452374 1.1466539 -1.6427404 8.9429761e-39
9.2529316 1.1452788 -1.5949631 8.6663892e-39
9.2328062 1.1435034 -1.494131 1.0233715e-38
9.2397223 1.1421541 -1.4464202 9.0351717e-39
9.2463884 1.1408116 -1.3986739 1.0325911e-38
9.2589712 1.1381475 -1.3030789 9.8649324e-39
9.2648878 1.1368258 -1.255233 1.097128e-38
9.305459 1.1345265 -1.2114215 1.0141519e-38
9.2410393 1.1351936 -1.1555691 1.2815193e-38
9.2461834 1.1338983 -1.1078186 1.1616649e-38
9.2685604 1.13211 -1.0617996 1.1616649e-38
9.3256874 1.1293195 -1.0189052 9.8649324e-39
9.2601137 1.1300548 -0.96441358 1.1616649e-38
9.2642574 1.1287881 -0.91656512 9.8649324e-39
9.2681494 1.1275287 -0.86869532 8.8507805e-39
9.3068361 1.1252525 -0.82340509 1.0786889e-38
9.3102398 1.1240028 -0.77531326 9.957128e-39
9.2958565 1.1232773 -0.72608805 1.0510302e-38
9.2987518 1.1220449 -0.67805469 1.0049324e-38
9.3013945 1.1208199 -0.63000661 1.0879084e-38
9.3388872 1.1185548 -0.58362621 1.0049324e-38
9.3059263 1.1183923 -0.53387183 1.2169823e-38
9.3078146 1.1171899 -0.48578763 9.957128e-39
9.2743282 1.1170563 -0.43656471 9.6805411e-39
9.3283997 1.1142747 -0.39006504 8.9429761e-39
9.3295336 1.1130928 -0.34186459 9.4961499e-39
9.3837538 1.1091331 -0.24603872 9.0351717e-39
9.3665638 1.1085095 -0.19744508 1.0510302e-38
9.3666897 1.1073542 -0.14904666 1.1524454e-38
9.3841314 1.1056604 -0.10056873 9.219563e-39
9.3479805 1.1044859 -0.0041189338 1.0141519e-38
9.4131517 1.0978111 0.19156696 8.7585848e-39
9.4112406 1.0967131 0.24020553 9.4039542e-39
9.4441757 1.094497 0.29046389 9.4039542e-39
9.4066544 1.0945417 0.33744988 8.2976067e-39
9.4215202 1.092901 0.38705191 1.1063476e-38
9.43612 1.0912645 0.4368231 1.2538606e-38
9.4153957 1.0907748 0.48439699 1.1616649e-38
9.4469967 1.0885776 0.53559321 1.1708845e-38
9.4607992 1.0869563 0.58577174 1.1432258e-38
9.4393148 1.0864936 0.63319814 1.0325911e-38
9.4875917 1.0837269 0.68661785 9.219563e-39
9.4830875 1.0827001 0.73564142 1.1432258e-38
9.460845 1.0822648 0.78290814 1.1432258e-38
9.4558372 1.0812569 0.83179069 1.2999584e-38
9.502964 1.0784976 0.88639379 8.3898023e-39
9.4799604 1.07809 0.93348861 1.1801041e-38
9.5090485 1.0759236 0.98666698 1.1155671e-38
9.5029736 1.0749428 1.0357999 1.0325911e-38
9.5314798 1.0727829 1.089463 1.0694693e-38
9.5248661 1.0718161 1.1387124 1.0418106e-38
9.5179949 1.0708581 1.1879267 9.6805411e-39
9.5108652 1.0699091 1.2371045 1.0049324e-38
9.5382147 1.0677667 1.2915356 1.0141519e-38
9.5131893 1.0674347 1.3380817 1.0325911e-38
9.5226126 1.0659062 1.3900604 9.0351717e-39
9.5317497 1.064383 1.4421785 9.3117586e-39
9.5232887 1.0634736 1.4914259 8.4819979e-39
9.5491543 1.061354 1.5468273 8.9429761e-39
9.5574217 1.0598482 1.5993547 1.0602497e-38
9.5481386 1.058961 1.648735 8.4819979e-39
9.5730782 1.0568544 1.7048076 8.5741936e-39
9.5460196 1.0565983 1.7508079 9.8649324e-39
9.5531483 1.0551195 1.8036782 1.0049324e-38
9.5427942 1.0542661 1.853034 1.0049324e-38
9.5493507 1.0528014 1.9060664 9.8649324e-39
9.5384607 1.051965 1.9554013 8.9429761e-39
9.1512594 1.2616415 -2.5554039 1.0418106e-38
9.1808262 1.2596048 -2.5125942 9.1273674e-39
9.176156 1.2581536 -2.4607568 9.8649324e-39
9.1882324 1.2564161 -2.4133365 8.8507805e-39
9.1829967 1.2549832 -2.36164 1.0602497e-38
9.1945543 1.2532576 -2.3141847 1.1063476e-38
9.205863 1.2515365 -2.26667 1.0049324e-38
9.2169218 1.2498198 -2.2190959 1.097128e-38
9.2242527 1.2436445 -2.0210674 9.5883455e-39
9.2168016 1.2422833 -1.9699038 9.7727368e-39
9.2355623 1.2389294 -1.874598 8.9429761e-39
9.2618446 1.2369239 -1.8300976 9.7727368e-39
9.2445202 1.2342765 -1.7282388 8.5741936e-39
9.2354345 1.2329698 -1.6775147 9.8649324e-39
9.260747 1.2309777 -1.6326543 1.0602497e-38
9.2511311 1.2296871 -1.5820277 8.4819979e-39
9.2484455 1.2267822 -1.4837906 9.3117586e-39
9.2727995 1.2248013 -1.4385004 1.2262019e-38
9.2621126 1.2235466 -1.3881764 1.1616649e-38
9.2859917 1.2215699 -1.3426332 1.0418106e-38
9.2747784 1.220332 -1.2924236 1.0602497e-38
9.3156223 1.2179869 -1.2487667 1.1801041e-38
9.2864389 1.2171386 -1.1965426 1.1801041e-38
9.2569628 1.216308 -1.1446546 1.2538606e-38
9.2970963 1.213967 -1.100544 1.3183975e-38
9.3195314 1.2120043 -1.0542722 1.2169823e-38
9.2542658 1.2119811 -0.99940789 1.4105931e-38
9.258688 1.2104235 -0.95159298 1.3737149e-38
9.2978792 1.2080837 -0.90674251 1.2815193e-38
9.3368521 1.2057377 -0.86150396 1.1801041e-38
9.3055 1.2049849 -0.81063771 1.3368366e-38
9.3089333 1.2034441 -0.76255637 1.4013736e-38
9.2770395 1.2027205 -0.7122044 1.3368366e-38
9.367672 1.199154 -0.669447 1.4105931e-38
9.3528166 1.1980336 -0.62009865 1.2815193e-38
9.337698 1.1969248 -0.57092047 1.3737149e-38
9.3047609 1.1962451 -0.52115458 1.2630801e-38
9.3769197 1.1930617 -0.47574899 1.4290323e-38
9.2907801 1.1936688 -0.42442054 1.0233715e-38
9.380022 1.1900518 -0.37883681 1.0510302e-38
9.3987598 1.1881274 -0.33076096 1.097128e-38
9.3996792 1.186635 -0.2821961 1.1340062e-38
9.3300562 1.1868863 -0.23279727 1.0694693e-38
9.3831797 1.1841062 -0.18493931 1.1801041e-38
9.4184799 1.1817555 -0.13650429 1.2169823e-38
9.4359531 1.1798429 -0.087769531 1.1801041e-38
9.4355984 1.1783767 -0.039012339 1.1247867e-38
9.3998461 1.1778133 0.0092374338 1.2630801e-38
9.3814154 1.1768166 0.057460126 9.3117586e-39
9.3978672 1.1749243 0.1063669 1.0325911e-38
9.4475555 1.170684 0.20533237 9.219563e-39
9.4281073 1.1697164 0.25343511 9.1273674e-39
9.4259653 1.1682962 0.3021479 1.097128e-38
9.4411182 1.1664157 0.35174516 1.2538606e-38
9.4560051 1.1645366 0.40151316 1.0418106e-38
9.4355497 1.163604 0.44929072 1.1985432e-38
9.4323826 1.1622084 0.49804053 1.2077628e-38
9.4640121 1.1598644 0.54930019 1.0049324e-38
9.4428005 1.158958 0.59684294 1.2630801e-38
9.4738846 1.1566148 0.64852309 1.1063476e-38
9.4696732 1.1552395 0.69747168 8.6663892e-39
9.4827013 1.1533831 0.74802792 1.3183975e-38
9.4604816 1.15251 0.79530001 1.1155671e-38
9.4904566 1.15017 0.84780359 1.1708845e-38
9.4852018 1.1488181 0.89683694 1.1247867e-38
9.5146036 1.1464773 0.94983476 1.3368366e-38
9.5088148 1.1451353 0.99899358 1.0694693e-38
9.5202017 1.1432973 1.0503006 1.1985432e-38
9.5138865 1.1419675 1.0994878 1.1616649e-38
9.524724 1.1401372 1.1510028 1.2538606e-38
9.5352783 1.1383095 1.2026651 1.244641e-38
9.5629358 1.1359714 1.2570167 1.0786889e-38
9.5381641 1.1351775 1.303791 8.6663892e-39
9.5305195 1.1338782 1.3530699 1.0602497e-38
9.5226183 1.1325866 1.4023081 1.0694693e-38
9.5144587 1.1313027 1.4515045 1.0325911e-38
9.5579796 1.1284522 1.5096509 9.5883455e-39
9.5492573 1.1271769 1.5590312 1.0418106e-38
9.5575571 1.1253799 1.6115446 1.1247867e-38
9.5483017 1.1241181 1.6609218 1.1801041e-38
9.5560322 1.1223301 1.7136098 1.2169823e-38
9.5462418 1.1210819 1.7629782 1.1155671e-38
9.5534029 1.1193032 1.8158348 1.1432258e-38
9.5430775 1.1180689 1.8651881 1.0694693e-38
9.5496645 1.1162996 1.9182073 9.6805411e-39
9.5388021 1.1150794 1.9675401 8.6663892e-39
9.5559387 1.1098123 2.1274264 8.2976067e-39
9.1742086 1.3821329 -2.4264932 8.3898023e-39
9.186121 1.3800008 -2.3791428 8.5741936e-39
9.2180042 1.3675015 -2.0863638 1.0049324e-38
9.2225132 1.3593557 -1.8890475 9.6805411e-39
9.2488813 1.3571101 -1.8447099 8.2976067e-39
9.2490501 1.353074 -1.7461139 8.4819979e-39
9.2573957 1.3509845 -1.6983786 8.5741936e-39
9.2654915 1.3488973 -1.6506001 9.4039542e-39
9.2733374 1.3468126 -1.6027797 1.0233715e-38
9.2635651 1.3449036 -1.5522022 8.7585848e-39
9.3056555 1.3424734 -1.5096443 9.1273674e-39
9.3127613 1.3403922 -1.4616152 9.219563e-39
9.3022079 1.3384987 -1.4111059 1.2169823e-38
9.3087978 1.3364269 -1.3630959 1.1708845e-38
9.315136 1.3343576 -1.3150518 1.2354214e-38
9.3212214 1.3322912 -1.266975 1.1524454e-38
9.3270559 1.3302276 -1.2188671 1.1063476e-38
9.3326378 1.328167 -1.170729 1.2354214e-38
9.3204927 1.3263178 -1.1206661 1.2077628e-38
9.3080778 1.3244793 -1.0707587 1.4290323e-38
9.3128834 1.3224355 -1.0227215 1.2354214e-38
9.33494 1.3201746 -0.97628117 1.2169823e-38
9.3392506 1.3181331 -0.92810434 1.2354214e-38
9.3082733 1.3165509 -0.87702864 1.2262019e-38
9.3120651 1.3145237 -0.82899243 1.1893236e-38
9.2980719 1.3127356 -0.77968174 1.1432258e-38
9.3539677 1.3100003 -0.73518956 1.1616649e-38
9.3570147 1.3079755 -0.68691558 1.0786889e-38
9.3422594 1.3062016 -0.63764656 1.3829344e-38
9.3447962 1.3041878 -0.58943486 1.3183975e-38
9.3821964 1.3016677 -0.54280233 1.0510302e-38
9.3491106 1.300171 -0.49297446 9.7727368e-39
9.3860188 1.2976431 -0.4459528 1.0510302e-38
9.4051189 1.2953701 -0.39803439 1.0510302e-38
9.4415407 1.2928232 -0.35035297 9.3117586e-39
9.4249964 1.2910868 -0.30128831 1.0141519e-38
9.4257689 1.2890843 -0.25264716 1.1616649e-38
9.443862 1.2868043 -0.20415497 1.3183975e-38
9.4441261 1.2848061 -0.1554161 1.0879084e-38
9.4265575 1.2831012 -0.10670774 1.1432258e-38
9.4263105 1.2811152 -0.058060378 1.3276171e-38
9.425808 1.2791333 -0.0094148275 1.1340062e-38
9.4240398 1.2751826 0.087865584 9.219563e-39
9.4403419 1.2729061 0.13698892 9.7727368e-39
9.4546013 1.2686595 0.23508935 9.0351717e-39
9.4876795 1.2660592 0.28541371 9.4961499e-39
9.4678221 1.2644163 0.33351809 8.9429761e-39
9.4800014 1.2601774 0.43226412 1.0141519e-38
9.4593906 1.2585599 0.48005149 9.7727368e-39
9.5012131 1.2517138 0.63066387 8.4819979e-39
9.4970999 1.2497753 0.67969435 1.2262019e-38
9.492732 1.247842 0.72870278 1.0233715e-38
9.5181932 1.2432729 0.83019948 1.1247867e-38
9.5130348 1.241348 0.87931681 9.3117586e-39
9.5250854 1.2390624 0.93036503 8.9429761e-39
9.5717659 1.2360358 0.98566693 1.0141519e-38
9.565793 1.2341129 1.0350629 1.1247867e-38
9.5421286 1.2325722 1.0821948 1.0786889e-38
9.5879097 1.2295231 1.1384054 1.0325911e-38
9.5811348 1.2276099 1.1878843 1.1708845e-38
9.5741024 1.2257024 1.2373273 8.6663892e-39
9.5668116 1.2238007 1.2867329 1.0049324e-38
9.5688038 1.2196169 1.3882054 8.9429761e-39
9.5780592 1.217328 1.440451 8.8507805e-39
9.5697031 1.2154429 1.4898753 8.5741936e-39
9.604085 1.2104563 1.5980132 8.4819979e-39
9.5776291 1.2089942 1.6443405 9.3117586e-39
9.5854607 1.2067083 1.6970823 8.4819979e-39
9.5757599 1.2048438 1.7465426 8.7585848e-39
9.2318916 1.4262612 -2.0808463 8.9429761e-39
9.2421017 1.4239967 -2.0332 8.2054111e-39
9.2631674 1.4150084 -1.8388191 8.2054111e-39
9.323967 1.4125513 -1.8005787 8.4819979e-39
9.246192 1.4106393 -1.736961 8.2976067e-39
9.2627563 1.4061487 -1.6414827 9.0351717e-39
9.2706614 1.4039052 -1.5936794 9.957128e-39
9.2783175 1.4016628 -1.5458355 1.1893236e-38
9.2857218 1.3994217 -1.4979521 1.0694693e-38
9.3102665 1.3970852 -1.4525845 9.1273674e-39
9.3171816 1.3948426 -1.4045349 1.0602497e-38
9.3238459 1.3926015 -1.3564496 1.1708845e-38
9.3128271 1.3904713 -1.3060491 1.1063476e-38
9.3189754 1.3882376 -1.2579877 1.4290323e-38
9.3074188 1.3861234 -1.2077963 1.0786889e-38
9.3130512 1.3838973 -1.1597643 1.2815193e-38
9.3009596 1.3817992 -1.1097876 1.1708845e-38
9.3235607 1.3794502 -1.0636146 1.5027888e-38
9.3109455 1.3773644 -1.013767 1.3460562e-38
9.3330622 1.3750107 -0.9673599 1.3829344e-38
9.3374348 1.3727939 -0.91919631 1.3737149e-38
9.3415537 1.3705792 -0.87101042 1.3552758e-38
9.3103714 1.3686701 -0.82007051 1.1432258e-38
9.3490353 1.3661562 -0.77457684 1.5765453e-38
9.352396 1.3639481 -0.72633177 1.539667e-38
9.355504 1.3617423 -0.67806965 1.2815193e-38
9.3408108 1.3597072 -0.62879229 1.2999584e-38
9.3785162 1.357165 -0.5824073 1.3368366e-38
9.3808708 1.3549623 -0.53401017 1.5488866e-38
9.4005318 1.352581 -0.48632517 1.2077628e-38
9.3672504 1.3507499 -0.4365496 8.8507805e-39
9.4215469 1.3479909 -0.38983369 1.2630801e-38
9.4053192 1.345984 -0.34076518 1.1155671e-38
9.4591265 1.3431973 -0.29329965 1.0418106e-38
9.4248133 1.341398 -0.24395499 1.3183975e-38
9.4429693 1.3390001 -0.19549187 1.1985432e-38
9.4432936 1.3368071 -0.1467617 1.1340062e-38
9.4433641 1.3346171 -0.098030441 1.2169823e-38
9.425601 1.3326488 -0.049402568 1.3737149e-38
9.4420395 1.3280662 0.048157156 9.7727368e-39
9.4235153 1.3261198 0.096500695 8.7585848e-39
9.4398804 1.3237153 0.14559688 9.957128e-39
9.4911203 1.3208281 0.19599596 8.9429761e-39
9.4874086 1.3164732 0.29394189 9.7727368e-39
9.4851675 1.3143013 0.34289917 9.7727368e-39
9.4769068 1.3078076 0.48969215 9.0351717e-39
9.508709 1.3051157 0.54100376 8.7585848e-39
9.5227013 1.3026831 0.59136724 9.219563e-39
9.5148439 1.2983648 0.68962419 9.0351717e-39
9.5455399 1.2956446 0.74186528 1.0510302e-38
9.5584469 1.2932003 0.79278564 9.7727368e-39
9.5186148 1.2916267 0.83859849 8.2976067e-39
9.5484753 1.2888913 0.89140671 8.4819979e-39
9.5374708 1.2845998 0.98991859 1.0786889e-38
9.6013699 1.2812308 1.0476139 9.3117586e-39
9.6126137 1.2787691 1.0993712 1.1985432e-38
9.6061487 1.2766194 1.1489748 1.1432258e-38
9.5820141 1.2747937 1.1961495 1.2630801e-38
9.5750437 1.2726574 1.2455919 9.957128e-39
9.5851984 1.2701988 1.2975737 8.4819979e-39
9.595068 1.2677372 1.3496991 9.4961499e-39
9.5872927 1.2656077 1.3992081 1.0049324e-38
9.579257 1.2634833 1.4486759 9.0351717e-39
9.5881882 1.2564393 1.6030602 8.6663892e-39
9.5790854 1.2543278 1.6525304 8.9429761e-39
9.6042461 1.251505 1.7085558 9.8649324e-39
9.5945892 1.2493964 1.758109 8.8507805e-39
9.3140678 1.4679098 -1.8443855 9.1273674e-39
9.3484774 1.458474 -1.6518078 8.9429761e-39
9.2773409 1.4537942 -1.5416151 9.4961499e-39
9.2847347 1.4514575 -1.4937347 1.0141519e-38
9.3092709 1.4491043 -1.4483631 9.8649324e-39
9.3161764 1.4467634 -1.4003167 1.1340062e-38
9.3228292 1.4444228 -1.3522347 1.1893236e-38
9.3466616 1.4420528 -1.3063923 1.0233715e-38
9.3179369 1.4397773 -1.2537869 1.1616649e-38
9.323822 1.4374425 -1.2056974 1.2907388e-38
9.3119917 1.4351513 -1.1555778 1.2262019e-38
9.334836 1.4327747 -1.1094292 1.1340062e-38
9.3049955 1.4305457 -1.0576186 1.2262019e-38
9.3273468 1.4281659 -1.011325 1.0325911e-38
9.3319607 1.4258389 -0.96318918 1.2630801e-38
9.3363218 1.4235129 -0.91502982 1.2815193e-38
9.3404312 1.4211878 -0.86684823 1.2538606e-38
9.3442879 1.4188637 -0.81864572 1.2907388e-38
9.3478918 1.4165406 -0.77042353 1.5120083e-38
9.3512421 1.4142187 -0.72218311 1.1985432e-38
9.3718843 1.4118106 -0.67501009 1.2538606e-38
9.3747358 1.4094868 -0.62664533 1.2630801e-38
9.3773327 1.4071642 -0.5782662 1.4474714e-38
9.3796749 1.4048431 -0.52987403 1.456691e-38
9.3817654 1.4025234 -0.4814702 1.097128e-38
9.4187336 1.3999864 -0.43430644 1.1524454e-38
9.437892 1.3975472 -0.38623279 1.0786889e-38
9.4216547 1.3953372 -0.33708471 9.8649324e-39
9.4227333 1.3930153 -0.28846359 1.1340062e-38
9.4411335 1.390568 -0.24009502 1.2907388e-38
9.4417019 1.3882452 -0.19137311 1.1708845e-38
9.4420166 1.3859243 -0.14264888 1.0325911e-38
9.4244976 1.3837456 -0.093941674 1.1063476e-38
9.4243011 1.381433 -0.045308512 8.4819979e-39
9.4590034 1.3788249 0.0037271108 8.8507805e-39
9.4407196 1.3766611 0.052245621 9.0351717e-39
9.5211582 1.3642579 0.29952469 9.219563e-39
9.5311527 1.357118 0.44791728 9.3117586e-39
9.5631971 1.3544172 0.49934319 9.4961499e-39
9.5484133 1.3451467 0.69663692 8.2976067e-39
9.5615768 1.3426229 0.74748778 8.4819979e-39
9.5695887 1.3377813 0.84790558 8.2054111e-39
9.5765276 1.3329358 0.94858479 9.8649324e-39
9.5708637 1.3306293 0.99800092 9.6805411e-39
9.5998363 1.3278476 1.0516416 9.0351717e-39
9.5761976 1.3257833 1.0989597 1.1155671e-38
9.6045933 1.3229874 1.152992 9.4961499e-39
9.5804472 1.3209348 1.2001514 9.6805411e-39
9.5908632 1.3183815 1.2520771 8.8507805e-39
9.612319 1.3083963 1.4583566 9.219563e-39
9.2240067 1.5628752 -2.5262923 8.9429761e-39
9.3183565 1.5235728 -1.6934631 9.4039542e-39
9.3093119 1.5212146 -1.6424174 9.5883455e-39
9.3867168 1.5192327 -1.6057314 9.7727368e-39
9.3424606 1.516729 -1.5490037 9.4961499e-39
9.3499908 1.5144457 -1.5007687 1.1432258e-38
9.2877121 1.5119179 -1.4422081 9.219563e-39
9.3362312 1.5074857 -1.3510569 1.0233715e-38
9.3427229 1.5052075 -1.302857 1.1708845e-38
9.2966461 1.5027977 -1.2480016 1.2630801e-38
9.302599 1.5005312 -1.2000102 1.2354214e-38
9.3083 1.4982641 -1.151988 1.3091779e-38
9.3137493 1.4959965 -1.1039368 1.1801041e-38
9.3539085 1.4937812 -1.0595419 1.2077628e-38
9.3238916 1.49146 -1.0077521 1.1985432e-38
9.3285847 1.4891912 -0.95962107 1.1155671e-38
9.368041 1.4869491 -0.91460139 1.0233715e-38
9.3372135 1.4846529 -0.86328876 1.1893236e-38
9.3411493 1.4823836 -0.81508994 1.4198127e-38
9.3448315 1.4801141 -0.76687121 1.4474714e-38
9.365798 1.4778409 -0.71983486 1.2630801e-38
9.3338957 1.4755834 -0.66926998 1.0879084e-38
9.371912 1.4732937 -0.62312603 1.4935692e-38
9.3745871 1.4710203 -0.57474881 1.4474714e-38
9.3770103 1.4687471 -0.52635837 1.2815193e-38
9.3967409 1.4664489 -0.47869781 9.6805411e-39
9.4513588 1.4640832 -0.43214312 1.1247867e-38
9.4178934 1.4618618 -0.38223633 1.1063476e-38
9.4720221 1.4594668 -0.33502093 9.219563e-39
9.4204645 1.457302 -0.2850005 1.2907388e-38
9.4389429 1.4549761 -0.23665626 1.1985432e-38
9.4395933 1.4526935 -0.18793355 1.0879084e-38
9.4399872 1.4504116 -0.13920796 1.1708845e-38
9.4225473 1.4481903 -0.090474248 9.6805411e-39
9.4575863 1.4457861 -0.041668732 9.4961499e-39
9.5217762 1.4317412 0.25371918 8.2976067e-39
9.5001154 1.4272535 0.35118753 8.6663892e-39
9.5152378 1.4248641 0.40113485 8.3898023e-39
9.5300913 1.4224675 0.45125255 8.6663892e-39
9.5692873 1.4129364 0.65202588 8.2054111e-39
9.5652771 1.4106385 0.70141894 9.957128e-39
9.5816116 1.401175 0.90241891 9.4039542e-39
9.5762873 1.3988786 0.9518733 1.0786889e-38
9.5881672 1.3964304 1.0033106 8.5741936e-39
9.5762033 1.3918405 1.1022539 9.3117586e-39
9.6046896 1.3892158 1.1562477 1.0141519e-38
9.5980349 1.3869184 1.2058195 9.0351717e-39
9.6259279 1.3842736 1.2602905 9.0351717e-39
9.6187277 1.3819729 1.3099722 9.0351717e-39
9.3114233 1.5491332 -1.7196522 8.4819979e-39
9.3025827 1.5469121 -1.6685648 1.0141519e-38
9.3801336 1.5452911 -1.6321702 9.957128e-39
9.3708019 1.5430624 -1.5809059 8.7585848e-39
9.3438244 1.5407293 -1.5270523 9.4961499e-39
9.3512936 1.538624 -1.4787997 8.6663892e-39
9.4106855 1.5368263 -1.438152 8.2976067e-39
9.3306608 1.5342113 -1.3772671 9.1273674e-39
9.3373442 1.5321095 -1.3290855 1.1340062e-38
9.2914848 1.5297334 -1.2740459 1.1985432e-38
9.2976294 1.5276409 -1.2260705 1.1708845e-38
9.3035212 1.5255471 -1.1780636 1.097128e-38
9.3440886 1.5236105 -1.1340281 1.1708845e-38
9.3494978 1.5215064 -1.0857794 1.0879084e-38
9.3546534 1.5194013 -1.0375031 1.0694693e-38
9.3245707 1.5171609 -0.98574775 1.097128e-38
9.3292027 1.5150617 -0.93760318 1.1985432e-38
9.3335829 1.5129617 -0.88943511 1.0786889e-38
9.3377104 1.5108608 -0.84124476 1.1340062e-38
9.3415852 1.5087591 -0.79303348 1.3737149e-38
9.380271 1.5067511 -0.74733925 1.1801041e-38
9.3661146 1.5045968 -0.69773 1.097128e-38
9.3692369 1.5024891 -0.64937204 1.244641e-38
9.3721046 1.5003808 -0.60099846 1.2815193e-38
9.3747206 1.4982719 -0.55261052 1.392154e-38
9.42976 1.4962442 -0.50663775 9.5883455e-39
9.4494429 1.4941456 -0.45866701 1.0233715e-38
9.4688778 1.4920388 -0.41050208 1.0694693e-38
9.4177837 1.489863 -0.36000928 9.4039542e-39
9.4191351 1.4877446 -0.31138569 1.2169823e-38
9.4202318 1.485626 -0.26275569 1.2354214e-38
9.4386492 1.4835104 -0.21437857 1.0325911e-38
9.4568148 1.4813867 -0.16581379 9.957128e-39
9.4747257 1.479255 -0.11706273 9.3117586e-39
9.4570465 1.4750066 -0.019336471 8.4819979e-39
9.5492439 1.4555892 0.4254863 8.8507805e-39
9.5640249 1.4533902 0.47581565 9.4039542e-39
9.563798 1.4425799 0.72401029 8.3898023e-39
9.5798779 1.4338154 0.92506254 9.219563e-39
9.6037664 1.4293202 1.0280142 8.5741936e-39
9.5803919 1.4272642 1.0754644 9.219563e-39
9.5916557 1.4250083 1.1271377 8.2976067e-39
9.6026354 1.4227461 1.1789606 8.9429761e-39
9.6237431 1.4182026 1.2830484 8.2976067e-39
9.3223619 1.5645924 -1.8347356 8.4819979e-39
9.3142643 1.5625292 -1.7833431 8.3898023e-39
9.3318291 1.5586988 -1.6870786 8.5741936e-39
9.3748837 1.5570538 -1.644816 1.0049324e-38
9.3657246 1.5549932 -1.5935136 1.0879084e-38
9.3389282 1.5528083 -1.5395633 9.4039542e-39
9.3465595 1.5508878 -1.4913285 1.1247867e-38
9.3017864 1.5485988 -1.435238 9.1273674e-39
9.361062 1.5470413 -1.3947421 9.219563e-39
9.3331137 1.5448854 -1.3415468 9.8649324e-39
9.3397083 1.5429652 -1.293345 1.1616649e-38
9.3111801 1.5408278 -1.2406273 1.3183975e-38
9.3521366 1.5391197 -1.1968414 1.1432258e-38
9.3405142 1.5370944 -1.1464835 1.1524454e-38
9.3460855 1.5351715 -1.0982457 1.1985432e-38
9.3514032 1.5332474 -1.0499796 1.1708845e-38
9.3739557 1.5314113 -1.0034705 1.1524454e-38
9.3262892 1.5292232 -0.94998145 1.1155671e-38
9.3308306 1.5273025 -0.9018209 1.1985432e-38
9.3351202 1.5253805 -0.85363716 1.2630801e-38
9.3566771 1.5235323 -0.80684972 1.2630801e-38
9.3779964 1.5216757 -0.75985843 1.2262019e-38
9.3464718 1.519608 -0.70896083 1.3368366e-38
9.3672915 1.5177457 -0.6618408 1.1432258e-38
9.3703222 1.515815 -0.61346966 1.2354214e-38
9.3731003 1.5138834 -0.56508344 1.1985432e-38
9.3931808 1.5120038 -0.51755065 1.2354214e-38
9.4305773 1.5101655 -0.47059715 1.0233715e-38
9.4677353 1.5083116 -0.42326483 1.2630801e-38
9.4695148 1.5063586 -0.37437159 1.1801041e-38
9.4710379 1.5044051 -0.32546967 1.0510302e-38
9.4195862 1.5023474 -0.27533695 1.4105931e-38
9.4205914 1.5004038 -0.22669762 9.7727368e-39
9.4564943 1.4985141 -0.17850167 9.3117586e-39
9.4569921 1.4965624 -0.12967062 9.4961499e-39
9.4923897 1.4946499 -0.080917694 8.6663892e-39
9.4745255 1.4907176 0.016972624 8.6663892e-39
9.5220299 1.4809166 0.26334897 9.5883455e-39
9.5483103 1.4730059 0.46189556 9.3117586e-39
9.5629959 1.4710075 0.51226097 9.8649324e-39
9.6054296 1.4649706 0.66435891 9.0351717e-39
9.5780058 1.453058 0.96160465 8.8507805e-39
9.6191559 1.4488994 1.0666882 8.7585848e-39
9.6131268 1.4469075 1.1163529 8.2054111e-39
9.5894041 1.4449886 1.1637324 8.8507805e-39
9.6312237 1.4367046 1.3720171 9.4961499e-39
9.6235933 1.4347087 1.4217409 8.9429761e-39
9.6504107 1.4325264 1.4770216 8.4819979e-39
9.2970486 1.5891267 -1.850341 9.5883455e-39
9.3236628 1.587721 -1.8056113 8.3898023e-39
9.3154984 1.5859697 -1.7542176 9.8649324e-39
9.3070478 1.5842218 -1.7029577 1.0049324e-38
9.3502522 1.5829654 -1.6609429 1.097128e-38
9.3586111 1.5813754 -1.6126295 1.1616649e-38
9.3320274 1.5794698 -1.5585631 1.1063476e-38
9.305131 1.5775739 -1.5048183 9.1273674e-39
9.3300447 1.5761397 -1.4594166 9.219563e-39
9.3547335 1.5746971 -1.4137944 1.1524454e-38
9.3269978 1.5728127 -1.3604785 9.1273674e-39
9.3337803 1.5712215 -1.3122911 1.3644953e-38
9.3054619 1.5693508 -1.2594508 1.0694693e-38
9.346591 1.5680326 -1.2158134 1.1616649e-38
9.3351688 1.5663028 -1.1653991 1.2262019e-38
9.34093 1.5647066 -1.1171719 1.2999584e-38
9.3639088 1.5632349 -1.0708591 1.1524454e-38
9.3691759 1.5616319 -1.0224828 1.0049324e-38
9.3217211 1.5596658 -0.96879679 1.4013736e-38
9.3264532 1.5580684 -0.92064267 1.2077628e-38
9.3659458 1.5566981 -0.87562019 1.0694693e-38
9.3351603 1.5548686 -0.82426369 1.3644953e-38
9.3391352 1.5532663 -0.77604133 1.4105931e-38
9.3779154 1.5518727 -0.73040444 1.0418106e-38
9.363862 1.5501591 -0.6807487 1.1893236e-38
9.3670845 1.5485491 -0.63237828 1.1801041e-38
9.3876019 1.5470338 -0.58501905 1.3644953e-38
9.3903227 1.5454179 -0.53652573 1.0233715e-38
9.4279032 1.5439806 -0.48970625 1.1432258e-38
9.4652481 1.5425297 -0.44250703 1.2907388e-38
9.484787 1.5409815 -0.39426935 1.0418106e-38
9.4162321 1.5390223 -0.3429983 1.3183975e-38
9.4176846 1.537397 -0.29435858 1.244641e-38
9.5594721 1.5363674 -0.24878456 9.4961499e-39
9.4374008 1.5342149 -0.19735193 1.0418106e-38
9.4732428 1.5327202 -0.1490038 1.0418106e-38
9.5071583 1.5229746 0.14530805 9.0351717e-39
9.5411968 1.5214183 0.19530399 8.4819979e-39
9.5222569 1.5197178 0.24405427 1.0418106e-38
9.5381994 1.5181042 0.29386798 9.219563e-39
9.549324 1.5131599 0.4425447 8.2976067e-39
9.5817585 1.5115538 0.49385995 1.0325911e-38
9.6072435 1.506583 0.64483321 8.8507805e-39
9.6106596 1.4948393 0.99556071 9.957128e-39
9.6225605 1.4931502 1.0472019 9.6805411e-39
9.1793299 1.6275669 -2.8107064 8.9429761e-39
9.2320995 1.6204002 -2.5680511 8.3898023e-39
9.245266 1.6190047 -2.5203373 8.2976067e-39
9.2703438 1.602264 -1.9694222 8.2976067e-39
9.2803745 1.6008472 -1.9215169 8.7585848e-39
9.3169317 1.5981939 -1.8289236 8.6663892e-39
9.3179827 1.5951521 -1.7293909 1.1155671e-38
9.3267555 1.5937216 -1.6812397 9.3117586e-39
9.3699102 1.5926442 -1.6390622 1.1801041e-38
9.3782091 1.5912031 -1.5906405 9.957128e-39
9.3342085 1.5892417 -1.5336926 1.1340062e-38
9.30723 1.5874639 -1.4799851 9.8649324e-39
9.366827 1.58653 -1.4398324 1.1432258e-38
9.3219109 1.584591 -1.3837643 1.0049324e-38
9.3288717 1.583151 -1.3355975 1.0879084e-38
9.3007488 1.5813907 -1.2826492 1.2354214e-38
9.3420382 1.580264 -1.2391583 1.1985432e-38
9.3133612 1.5785102 -1.1865073 1.0325911e-38
9.3367414 1.5772172 -1.1404874 1.1801041e-38
9.3598909 1.5759166 -1.0942546 1.1247867e-38
9.3653364 1.5744631 -1.0458934 1.2630801e-38
9.3180799 1.57258 -0.99202931 1.4382518e-38
9.3579741 1.5714102 -0.94735533 1.1340062e-38
9.3276472 1.5696793 -0.89572239 1.2077628e-38
9.3495617 1.5683601 -0.84908301 1.392154e-38
9.3537226 1.5669019 -0.80077946 1.4013736e-38
9.3576307 1.565442 -0.75245476 1.244641e-38
9.3788157 1.5641061 -0.70538545 1.244641e-38
9.364686 1.5625165 -0.65574735 1.0694693e-38
9.3853769 1.5611714 -0.608459 1.244641e-38
9.3882771 1.5597014 -0.55997145 8.6663892e-39
9.4260302 1.5584593 -0.51328522 1.0694693e-38
9.4635487 1.5572044 -0.46621841 1.2907388e-38
9.4481392 1.5556091 -0.41659957 1.0786889e-38
9.4149008 1.5539113 -0.36652189 1.1432258e-38
9.4165335 1.5524305 -0.31788328 1.2907388e-38
9.4706259 1.5512506 -0.27058181 9.3117586e-39
9.4366064 1.5495623 -0.22094025 1.0233715e-38
9.4726267 1.5482646 -0.17271891 9.5883455e-39
9.4908199 1.5468619 -0.12395338 9.0351717e-39
9.5258741 1.5410196 0.07256908 8.2054111e-39
9.5076284 1.5394313 0.12149455 9.5883455e-39
9.5230923 1.5364865 0.22019418 9.4961499e-39
9.5392179 1.5350432 0.26995394 1.0233715e-38
9.5375147 1.5335262 0.31923395 1.0141519e-38
9.5659618 1.5290862 0.46887293 8.2976067e-39
9.6095572 1.5246545 0.62069732 8.7585848e-39
9.6142683 1.5139407 0.97144282 9.0351717e-39
9.6263599 1.5124209 1.0230449 9.3117586e-39
9.6207094 1.5108707 1.07277 1.097128e-38
9.6335125 1.501585 1.3781716 8.8507805e-39
9.1793299 1.6275669 -2.8107064 8.5741936e-39
9.2283087 1.6187792 -2.5157123 9.0351717e-39
9.2875395 1.6024607 -1.9730638 8.4819979e-39
9.2803745 1.6008472 -1.9215169 8.9429761e-39
9.2901535 1.5994276 -1.8735598 8.2054111e-39
9.3089581 1.59658 -1.7774955 8.4819979e-39
9.3179827 1.5951521 -1.7293909 1.0418106e-38
9.3267555 1.5937216 -1.6812397 1.097128e-38
9.3699102 1.5926442 -1.6390622 1.1155671e-38
9.3782091 1.5912031 -1.5906405 1.0325911e-38
9.3515568 1.5894142 -1.5365205 1.1247867e-38
9.3593178 1.5879734 -1.4881964 1.0141519e-38
9.366827 1.58653 -1.4398324 1.1247867e-38
9.3566914 1.5849198 -1.3888747 9.8649324e-39
9.3114681 1.5829893 -1.3331335 9.6805411e-39
9.3007488 1.5813907 -1.2826492 1.1708845e-38
9.3420382 1.580264 -1.2391583 1.1432258e-38
9.3133612 1.5785102 -1.1865073 1.0233715e-38
9.3367414 1.5772172 -1.1404874 9.3117586e-39
9.3598909 1.5759166 -1.0942546 1.1432258e-38
9.3303909 1.5741726 -1.0420604 1.2262019e-38
9.3180799 1.57258 -0.99202931 1.3460562e-38
9.3229904 1.5711306 -0.94388837 1.2630801e-38
9.3451481 1.5698162 -0.89736432 1.3183975e-38
9.3495617 1.5683601 -0.84908301 1.3276171e-38
9.3537226 1.5669019 -0.80077946 1.3091779e-38
9.3576307 1.565442 -0.75245476 1.2907388e-38
9.3788157 1.5641061 -0.70538545 1.2077628e-38
9.364686 1.5625165 -0.65574735 9.6805411e-39
9.3853769 1.5611714 -0.608459 1.1616649e-38
9.3882771 1.5597014 -0.55997145 1.0786889e-38
9.3909216 1.5582298 -0.51146936 1.2169823e-38
9.4459906 1.5570924 -0.46540236 1.1708845e-38
9.4481392 1.5556091 -0.41659957 1.1432258e-38
9.4149008 1.5539113 -0.36652189 1.0233715e-38
9.4692411 1.5527413 -0.31950411 1.1063476e-38
9.435482 1.5510489 -0.26968515 9.957128e-39
9.4366064 1.5495623 -0.22094025 9.6805411e-39
9.4726267 1.5482646 -0.17271891 8.3898023e-39
9.4908199 1.5468619 -0.12395338 8.5741936e-39
9.4737062 1.5437754 -0.025898986 8.2976067e-39
9.5076284 1.5394313 0.12149455 9.3117586e-39
9.5392179 1.5350432 0.26995394 9.4039542e-39
9.519949 1.5334592 0.31857854 9.4039542e-39
9.5531149 1.5320723 0.36925161 8.2976067e-39
9.5659618 1.5290862 0.46887293 8.2976067e-39
9.5807638 1.5276155 0.51931304 9.5883455e-39
9.577754 1.5260855 0.56880677 8.9429761e-39
9.6142683 1.5139407 0.97144282 8.8507805e-39
9.6207094 1.5108707 1.07277 9.6805411e-39
9.6148005 1.5093201 1.1224649 8.6663892e-39
9.1812553 1.6155608 -2.8964047 8.2054111e-39
9.213542 1.6067497 -2.5437009 9.3117586e-39
9.269269 1.5919179 -1.9497523 9.6805411e-39
9.2987394 1.5883977 -1.8058896 8.7585848e-39
9.3080606 1.5872195 -1.7578347 9.7727368e-39
9.3171301 1.5860389 -1.7097318 1.0694693e-38
9.3605442 1.5851709 -1.667816 1.0879084e-38
9.3864555 1.5841364 -1.6224662 1.0602497e-38
9.342823 1.5824833 -1.5651475 1.0694693e-38
9.3508816 1.5812936 -1.5168654 1.0602497e-38
9.3586884 1.5801017 -1.4685417 9.5883455e-39
9.2967434 1.5783228 -1.409525 8.8507805e-39
9.3387651 1.5774235 -1.3666309 1.1616649e-38
9.2935801 1.5758045 -1.3109292 1.1340062e-38
9.3351364 1.5748943 -1.2676885 1.0602497e-38
9.3067846 1.5734243 -1.2148532 9.957128e-39
9.365325 1.5726361 -1.1733875 9.4961499e-39
9.3713322 1.5714343 -1.1249933 1.1708845e-38
9.3247051 1.5698392 -1.0704932 1.2815193e-38
9.3476439 1.5687685 -1.0242466 1.2262019e-38
9.3179092 1.5673139 -0.97226286 1.2538606e-38
9.340353 1.5662372 -0.92587012 1.3644953e-38
9.3450642 1.565033 -0.87761003 1.3183975e-38
9.3495226 1.5638269 -0.82932603 1.2722997e-38
9.3712435 1.5627358 -0.78249502 1.1893236e-38
9.3752031 1.561524 -0.73407531 1.2169823e-38
9.3613796 1.5601985 -0.68434334 1.0325911e-38
9.4349718 1.5594251 -0.64077854 1.0694693e-38
9.38556 1.5578791 -0.58870131 1.0694693e-38
9.388504 1.5566609 -0.54020941 1.3276171e-38
9.4614086 1.5558528 -0.4954026 1.1616649e-38
9.4287481 1.5544212 -0.44484901 1.1340062e-38
9.4133759 1.5530957 -0.395392 1.0786889e-38
9.415308 1.5518693 -0.34675726 1.244641e-38
9.4169846 1.5506415 -0.29811314 9.219563e-39
9.4359789 1.5495037 -0.24992622 1.0325911e-38
9.4371481 1.5482709 -0.20117529 8.4819979e-39
9.5091095 1.5411482 0.092112355 9.5883455e-39
9.5753527 1.5364025 0.29078525 8.8507805e-39
9.5561218 1.5350753 0.33961928 8.2976067e-39
9.5542021 1.5338128 0.38899067 8.8507805e-39
9.5671406 1.5313413 0.48861414 9.7727368e-39
9.5819902 1.5301276 0.5390473 8.9429761e-39
9.6082983 1.5213306 0.89013189 8.8507805e-39
9.6280508 1.5175426 1.0428088 1.0510302e-38
9.622448 1.5162541 1.0925466 9.3117586e-39
9.5991325 1.5149398 1.1401485 8.2054111e-39
9.2091208 1.6014924 -2.5514112 8.2054111e-39
9.2659283 1.5880415 -1.957532 9.219563e-39
9.305069 1.5837883 -1.7656749 8.6663892e-39
9.2969494 1.582568 -1.7143466 9.3117586e-39
9.3577166 1.5819466 -1.6757474 1.0694693e-38
9.3317823 1.5805748 -1.6212677 9.5883455e-39
9.3055315 1.5792087 -1.5671055 8.6663892e-39
9.3136482 1.5781351 -1.519017 9.957128e-39
9.2868013 1.5767771 -1.4653145 8.8507805e-39
9.294385 1.5757035 -1.4173254 9.7727368e-39
9.3364859 1.5749021 -1.3745059 1.1985432e-38
9.2914019 1.573415 -1.3187183 1.0879084e-38
9.3330364 1.5726036 -1.2755514 1.2169823e-38
9.3222036 1.5713891 -1.2249922 9.8649324e-39
9.3285284 1.5703056 -1.1768212 1.1524454e-38
9.3171549 1.5690935 -1.1264695 1.1801041e-38
9.3229637 1.5680084 -1.0783263 1.2169823e-38
9.3459873 1.5670443 -1.032119 1.3829344e-38
9.3338232 1.5658329 -0.98195219 1.1155671e-38
9.3388758 1.5647424 -0.93372387 1.2354214e-38
9.3611708 1.5637668 -0.8871609 1.244641e-38
9.3482208 1.5625566 -0.83719128 1.1801041e-38
9.3525133 1.5614611 -0.78888965 1.1985432e-38
9.374074 1.5604744 -0.74198234 1.0141519e-38
9.3603411 1.5592654 -0.69222236 1.1063476e-38
9.3814087 1.5582713 -0.64509195 1.1063476e-38
9.384696 1.5571674 -0.59661937 1.1155671e-38
9.3877277 1.5560621 -0.54813021 1.3276171e-38
9.4256105 1.555155 -0.50154018 1.1155671e-38
9.4457006 1.5541402 -0.45370343 1.0325911e-38
9.4128637 1.552833 -0.40335038 1.2262019e-38
9.4148836 1.5517198 -0.35471654 1.2077628e-38
9.4342165 1.5506967 -0.30666223 1.0049324e-38
