# .PCD v0.7 - Point Cloud Data file format
VERSION 0.7
FIELDS x y z rgb
SIZE 4 4 4 4
TYPE F F F F
COUNT 1 1 1 1
WIDTH 1040
HEIGHT 1
VIEWPOINT 9.93104 14.5831 5.8 0.997626 0.0336346 -0.011705 -0.0589371
POINTS 1040
DATA ascii
4.6583214 -2.1068757 0.91717535 1.2630801e-38
4.6892018 -2.1054373 0.94782931 1.0418106e-38
4.6851945 -2.1051188 0.9732846 1.2538606e-38
4.6810536 -2.1048045 0.99871874 1.2262019e-38
4.6940994 -2.1039324 1.0270834 1.1893236e-38
4.776195 -2.1008091 1.0677793 1.1340062e-38
4.82342 -2.0988081 1.1030903 1.0602497e-38
4.7840567 -2.0996325 1.1227983 1.1063476e-38
4.7791314 -2.0993326 1.1487485 9.4039542e-39
4.8774858 -2.0956318 1.1951028 9.8649324e-39
4.8549628 -2.0959034 1.2180464 1.1432258e-38
4.7979412 -2.0973206 1.2336107 9.0351717e-39
4.8439765 -2.095325 1.2706587 9.4039542e-39
4.8554368 -2.094471 1.3006865 9.5883455e-39
5.0065856 -2.1526165 -1.154763 8.7585848e-39
5.0545416 -2.1503973 -1.1088935 8.7585848e-39
5.112514 -2.1484239 -1.093978 9.1273674e-39
5.0679178 -2.1490421 -1.0540043 8.8507805e-39
5.0915031 -2.1479342 -1.0304993 1.0233715e-38
5.1321197 -2.1463878 -1.0106833 1.0602497e-38
5.1726723 -2.1448362 -0.99047512 1.1247867e-38
5.075767 -2.1468179 -0.94009781 9.4961499e-39
5.1504149 -2.1443851 -0.92709011 1.097128e-38
5.2078567 -2.1423855 -0.90978909 1.0141519e-38
5.2480311 -2.1408257 -0.88846499 1.0325911e-38
5.2708821 -2.1397121 -0.8633886 1.0879084e-38
5.2936182 -2.138598 -0.83810252 9.957128e-39
5.3162384 -2.1374838 -0.81260705 1.0418106e-38
5.3214426 -2.1368265 -0.78381264 1.1524454e-38
5.3264961 -2.136173 -0.75499135 1.1893236e-38
5.3487282 -2.1350625 -0.72905278 1.097128e-38
5.3881841 -2.1334889 -0.70572525 1.0786889e-38
5.392828 -2.1328413 -0.67655522 1.2077628e-38
5.4146919 -2.131731 -0.64999747 1.2169823e-38
5.3842702 -2.1320281 -0.61559874 1.1524454e-38
5.5798378 -2.1262128 -0.61344582 1.2169823e-38
5.549171 -2.1265085 -0.57854706 1.2630801e-38
5.5705705 -2.125391 -0.55080706 1.3183975e-38
5.626708 -2.1233201 -0.52722496 1.3091779e-38
5.6304135 -2.1226785 -0.49680763 1.2999584e-38
5.6339598 -2.1220415 -0.46637127 1.2815193e-38
5.7072182 -2.119478 -0.4435418 1.1985432e-38
5.6930065 -2.1193266 -0.41088894 1.2815193e-38
5.8709688 -2.1138325 -0.39735791 1.2815193e-38
5.9089813 -2.1122122 -0.36892596 1.1893236e-38
5.9118533 -2.1115694 -0.33703196 1.2907388e-38
5.9320703 -2.1104395 -0.3065716 1.2815193e-38
6.0747657 -2.1058538 -0.28540978 1.3091779e-38
6.077198 -2.1052089 -0.25264841 1.1432258e-38
6.1145225 -2.103574 -0.22222067 1.3368366e-38
6.2043123 -2.1004393 -0.1946575 1.3183975e-38
6.3992419 -2.0942862 -0.17210068 1.2169823e-38
6.3659792 -2.0946345 -0.13584639 1.2077628e-38
6.1745477 -2.0995352 -0.092701383 1.1708845e-38
6.3515329 -2.0938494 -0.066554829 1.097128e-38
6.4406142 -2.0906737 -0.035454195 1.0694693e-38
4.3760176 -2.1416118 0.53937495 1.1801041e-38
4.3041053 -2.1434169 0.55762464 1.1893236e-38
4.3721786 -2.1408908 0.58707523 1.3091779e-38
4.4050679 -2.1394467 0.6140793 1.2907388e-38
4.3853297 -2.1396394 0.6364094 1.1801041e-38
4.470367 -2.1365545 0.66915196 1.3276171e-38
4.5377126 -2.1340089 0.70093781 1.392154e-38
4.535007 -2.1336567 0.72563809 1.2722997e-38
4.5496225 -2.1327574 0.75236624 1.2077628e-38
4.6164055 -2.1302023 0.78566337 1.2722997e-38
4.6306829 -2.1293023 0.81299996 1.3460562e-38
4.6622214 -2.1278489 0.8428185 1.1893236e-38
4.6761751 -2.1269512 0.87057686 1.1893236e-38
4.6377978 -2.1277277 0.89100313 1.1247867e-38
4.651473 -2.1268373 0.9188152 1.2077628e-38
4.7691698 -2.1225896 0.9628737 1.1432258e-38
4.7477407 -2.1228178 0.98601168 1.0602497e-38
4.7955427 -2.1208043 1.0203961 1.0879084e-38
4.739203 -2.1221681 1.0375836 1.1340062e-38
4.7866426 -2.1201563 1.0724671 1.0418106e-38
4.7992749 -2.1192737 1.1016014 1.0325911e-38
4.8462796 -2.1172597 1.1373421 1.0510302e-38
4.8757911 -2.1158118 1.1702844 8.8507805e-39
4.8533878 -2.1160703 1.1933444 1.0694693e-38
4.8825345 -2.1146259 1.2266845 9.8649324e-39
4.8770719 -2.1143239 1.2531849 1.0049324e-38
4.9573698 -2.1111672 1.2980371 9.7727368e-39
4.9858527 -2.1097236 1.3324609 8.9429761e-39
5.0089812 -2.1789656 -1.1435411 8.2054111e-39
5.050035 -2.1775119 -1.1250581 9.8649324e-39
5.1080861 -2.1756475 -1.1104398 8.5741936e-39
5.1149106 -2.1749973 -1.0827436 9.1273674e-39
5.1215901 -2.1743505 -1.0550121 9.4039542e-39
5.0938954 -2.1745312 -1.0192664 9.0351717e-39
5.2030525 -2.1714113 -1.0150455 9.4039542e-39
5.2093763 -2.1707668 -0.986853 1.1155671e-38
5.1640282 -2.1713803 -0.94746673 9.5883455e-39
5.1699982 -2.1707492 -0.91947937 1.0786889e-38
5.2274604 -2.1688552 -0.90208185 9.6805411e-39
5.2676544 -2.1673768 -0.88066286 1.0786889e-38
5.3250198 -2.165468 -0.86221284 1.0510302e-38
5.3305411 -2.1648355 -0.83338332 1.0325911e-38
5.3704777 -2.1633463 -0.81088305 1.1155671e-38
5.3411307 -2.1635814 -0.77563918 1.1616649e-38
5.3981447 -2.161658 -0.75571948 1.1524454e-38
5.4724298 -2.1592908 -0.73813629 1.1524454e-38
5.4252629 -2.1599772 -0.70008743 1.1524454e-38
5.4820142 -2.1580403 -0.67891073 1.1708845e-38
5.5386958 -2.156096 -0.65716422 1.2169823e-38
5.5605283 -2.1550312 -0.62976134 1.1893236e-38
5.5474281 -2.1548579 -0.59724867 1.1801041e-38
5.6560378 -2.1515608 -0.58142412 1.4105931e-38
5.5729585 -2.1531866 -0.53951454 1.2907388e-38
5.646534 -2.1507757 -0.51810455 1.2999584e-38
5.6676965 -2.1497128 -0.48968232 1.2354214e-38
5.7934728 -2.1459227 -0.47303343 1.2262019e-38
5.7096062 -2.1475887 -0.43223277 1.1708845e-38
5.7478271 -2.1460693 -0.40501964 1.2169823e-38
5.8733616 -2.142247 -0.38603035 1.2630801e-38
5.9113746 -2.1407132 -0.3575938 1.3368366e-38
5.8442268 -2.141958 -0.3195467 1.2077628e-38
5.9344611 -2.1390336 -0.29523599 1.2907388e-38
6.0421224 -2.1356292 -0.27134895 1.3368366e-38
6.2373304 -2.1298654 -0.25266221 1.1985432e-38
6.029253 -2.1348882 -0.20500849 1.1985432e-38
6.2242479 -2.1290977 -0.18436977 1.2169823e-38
6.4016466 -2.123749 -0.16071215 1.1708845e-38
6.5438695 -2.1193225 -0.1334158 1.1155671e-38
6.3700237 -2.1234622 -0.090175346 1.1063476e-38
6.35393 -2.1233308 -0.055169888 1.0233715e-38
6.4430132 -2.1203258 -0.024059081 8.7585848e-39
4.3782897 -2.1684771 0.55055422 1.1063476e-38
4.3589168 -2.1686459 0.57300627 1.1432258e-38
4.3569407 -2.1683068 0.59675986 1.0879084e-38
4.4598336 -2.1648803 0.63002288 1.2354214e-38
4.4925385 -2.1635079 0.65766096 1.2538606e-38
4.5250793 -2.1621344 0.68565315 1.3460562e-38
4.5399833 -2.1612785 0.71213716 1.3460562e-38
4.5372758 -2.1609445 0.73683751 1.3091779e-38
4.5867929 -2.1590495 0.76765639 1.1616649e-38
4.6186748 -2.1576741 0.79687262 1.2262019e-38
4.6329517 -2.1568215 0.82421112 1.2169823e-38
4.6993232 -2.1543956 0.85867018 1.2538606e-38
4.6784425 -2.1545951 0.88179386 1.2722997e-38
4.7618017 -2.1516371 0.91972035 1.244641e-38
4.7232485 -2.1523709 0.94039679 1.1432258e-38
4.7540727 -2.150995 0.97141957 1.1524454e-38
4.8367538 -2.1480267 1.0111059 1.1524454e-38
4.7978072 -2.1487741 1.0316285 1.1616649e-38
4.7761035 -2.1489973 1.0547203 1.1063476e-38
4.8408155 -2.1465571 1.0928366 1.097128e-38
4.8533988 -2.1457176 1.1222446 9.7727368e-39
4.8658113 -2.1448803 1.1518086 1.097128e-38
4.8953052 -2.143508 1.1848451 9.4961499e-39
4.9762993 -2.1405218 1.2284392 8.9429761e-39
4.988101 -2.1396863 1.2589166 9.5883455e-39
4.9653254 -2.1399336 1.2823697 1.0141519e-38
4.8909039 -2.1418102 1.294579 8.9429761e-39
5.0052695 -2.1377373 1.3474866 9.6805411e-39
5.0369868 -2.2072172 -1.1507753 8.4819979e-39
5.0610666 -2.2061944 -1.1277738 8.3898023e-39
5.1191459 -2.2043552 -1.1130841 8.2054111e-39
5.108932 -2.2041469 -1.0811261 8.5741936e-39
5.1668968 -2.2022989 -1.0656497 9.3117586e-39
5.1735039 -2.201684 -1.0376163 1.0602497e-38
5.1628299 -2.2014883 -1.005643 8.8507805e-39
5.151969 -2.2012999 -0.97381592 8.9429761e-39
5.2096167 -2.1994407 -0.9570387 1.0510302e-38
5.2156544 -2.198838 -0.92878276 9.7727368e-39
5.3076024 -2.1961219 -0.9182235 1.097128e-38
5.278975 -2.1963677 -0.88254386 9.957128e-39
5.2846222 -2.1957705 -0.85392553 1.0786889e-38
5.359179 -2.1934605 -0.83837694 1.1247867e-38
5.364593 -2.1928632 -0.80933905 1.244641e-38
5.4390488 -2.1905384 -0.7926482 1.1893236e-38
5.4615364 -2.1895068 -0.7661956 1.097128e-38
5.4665709 -2.1889117 -0.73662233 1.2815193e-38
5.5234852 -2.1870058 -0.71548796 1.2722997e-38
5.5282536 -2.186413 -0.68559092 1.2262019e-38
5.532865 -2.1858244 -0.65566921 1.2722997e-38
5.5547071 -2.1847961 -0.62827253 1.2630801e-38
5.6808167 -2.1810958 -0.61541677 1.2077628e-38
5.6502342 -2.1813996 -0.5799638 1.4105931e-38
5.6368666 -2.1812654 -0.54712909 1.2077628e-38
5.6407514 -2.1806881 -0.51664013 1.2630801e-38
5.6793718 -2.1792104 -0.49031654 1.2354214e-38
5.8051643 -2.1754596 -0.47361472 1.3368366e-38
5.8785348 -2.1730568 -0.4498845 1.2907388e-38
5.899385 -2.1720169 -0.41994923 1.2815193e-38
5.9375744 -2.1705189 -0.39154035 1.2907388e-38
5.870657 -2.1717832 -0.35293764 1.3183975e-38
6.1185799 -2.1647422 -0.34283563 1.2630801e-38
6.0338283 -2.1664762 -0.30256698 1.2815193e-38
6.036427 -2.1659029 -0.27000177 1.2999584e-38
6.3367987 -2.1573911 -0.25898474 1.2354214e-38
6.2690349 -2.158675 -0.22012724 1.2722997e-38
6.5518112 -2.1505685 -0.20368592 1.244641e-38
6.255641 -2.1579912 -0.15153126 1.1340062e-38
6.3627372 -2.1545808 -0.12321156 9.957128e-39
6.346839 -2.1544821 -0.088116825 1.1247867e-38
6.1902971 -2.1582041 -0.047461264 8.2976067e-39
4.3728695 -2.1994455 0.55242991 1.0049324e-38
4.3535042 -2.1996374 0.57488835 8.9429761e-39
4.3515363 -2.1993265 0.598643 1.0049324e-38
4.4019427 -2.1974881 0.62713104 1.1340062e-38
4.539628 -2.1930888 0.66452229 1.2354214e-38
4.5197062 -2.1932886 0.68748617 1.4198127e-38
4.5346189 -2.1924667 0.71396607 1.2722997e-38
4.5843072 -2.1906166 0.74451041 1.3552758e-38
4.6338038 -2.1887636 0.77558887 1.2999584e-38
4.6307812 -2.1884594 0.8008092 1.3737149e-38
4.6973448 -2.1860859 0.83490026 1.3091779e-38
4.746263 -2.1842272 0.86739153 1.2262019e-38
4.7775683 -2.1828866 0.89800817 1.2815193e-38
4.7391176 -2.1836314 0.91898954 1.3552758e-38
4.735343 -2.1833396 0.94475985 1.1801041e-38
4.7487988 -2.1825283 0.97318745 1.1063476e-38
4.8314939 -2.1796212 1.012849 1.2077628e-38
4.8098903 -2.1798611 1.036243 1.2262019e-38
4.9094257 -2.1764219 1.0800816 1.1247867e-38
4.8701944 -2.1771948 1.100661 1.1063476e-38
4.9691997 -2.1737487 1.1459025 1.0049324e-38
4.9642334 -2.1734715 1.1728752 9.5883455e-39
4.9763808 -2.1726685 1.2031336 8.5741936e-39
4.9883528 -2.1718678 1.2335457 9.3117586e-39
4.9829273 -2.1716018 1.2606177 9.4039542e-39
5.0117621 -2.1702745 1.2948267 9.219563e-39
4.9888334 -2.1705492 1.3183477 8.4819979e-39
5.0516138 -2.1681571 1.3604724 9.4961499e-39
5.062665 -2.1673691 1.3917269 8.2976067e-39
5.0464969 -2.2364187 -1.1582327 8.2054111e-39
5.1117067 -2.2339938 -1.1161807 8.2054111e-39
5.1595187 -2.2320132 -1.0688049 8.7585848e-39
5.200377 -2.2305717 -1.0488124 8.2054111e-39
5.2133069 -2.229501 -0.99229825 9.957128e-39
5.2195492 -2.2289717 -0.96399111 9.0351717e-39
5.2256441 -2.2284462 -0.93565166 9.4039542e-39
5.300415 -2.2260835 -0.92155093 1.0233715e-38
5.3407354 -2.2246356 -0.89974326 9.6805411e-39
5.3292489 -2.2245758 -0.86738259 9.957128e-39
5.3520966 -2.223593 -0.84176648 1.1063476e-38
5.4266567 -2.2212105 -0.82555968 1.1432258e-38
5.4320235 -2.2206931 -0.79613709 1.2630801e-38
5.506474 -2.2183001 -0.77878761 1.1155671e-38
5.5115952 -2.2177846 -0.74894744 1.1063476e-38
5.5165596 -2.2172737 -0.71908075 1.2999584e-38
5.5213675 -2.2167668 -0.68918848 1.1063476e-38
5.5954943 -2.2143598 -0.66991925 1.2354214e-38
5.6000443 -2.2138555 -0.63961411 1.2538606e-38
5.6914139 -2.2109597 -0.62168485 1.2630801e-38
5.6957092 -2.2104566 -0.59087789 1.2077628e-38
5.61274 -2.2123687 -0.54856116 1.0786889e-38
5.6863837 -2.2099476 -0.52699214 1.1801041e-38
5.8122902 -2.2060642 -0.51101696 1.2262019e-38
5.7461863 -2.2075164 -0.47148409 1.2815193e-38
5.8894134 -2.2031298 -0.45584857 1.392154e-38
5.892838 -2.2026396 -0.42400646 1.4105931e-38
5.9660316 -2.2001915 -0.39914295 1.2999584e-38
6.0391302 -2.1977367 -0.37352991 1.2262019e-38
6.0596223 -2.1967564 -0.34247035 1.1801041e-38
6.0274324 -2.1972623 -0.30678985 1.1893236e-38
6.1176577 -2.1943054 -0.28113845 1.2630801e-38
6.3479714 -2.1873605 -0.26488075 1.2077628e-38
6.2802687 -2.1888657 -0.22584383 1.1801041e-38
6.5279889 -2.1813848 -0.2074548 1.1063476e-38
6.3722286 -2.1854043 -0.16313492 1.0418106e-38
6.3741136 -2.1849282 -0.12876739 1.0510302e-38
6.3758183 -2.1844575 -0.094390348 8.9429761e-39
4.3639269 -2.2349076 0.59805989 9.4039542e-39
4.4143615 -2.2330813 0.6265769 1.0325911e-38
4.5345898 -2.2291231 0.66223586 1.2630801e-38
4.5321832 -2.2288909 0.68696845 1.2999584e-38
4.6170173 -2.225991 0.72085798 1.1985432e-38
4.7016234 -2.2230871 0.75564897 1.2169823e-38
4.6289101 -2.2250021 0.77318764 1.3091779e-38
4.6782503 -2.2231705 0.80473787 1.1985432e-38
4.709959 -2.2218759 0.83462059 1.2077628e-38
4.741487 -2.2205825 0.86485153 1.1432258e-38
4.7728319 -2.21929 0.89542973 1.1432258e-38
4.7692013 -2.2190781 0.92140734 1.2077628e-38
4.8175797 -2.2172492 0.95505887 1.1432258e-38
4.8657398 -2.21542 0.98923641 1.1063476e-38
4.8963242 -2.214133 1.0211923 1.1063476e-38
4.7186413 -2.2193587 1.0194433 1.097128e-38
4.8702784 -2.2142801 1.0714875 1.1340062e-38
4.9695754 -2.2108257 1.1160858 1.0879084e-38
4.982079 -2.2100906 1.1462007 1.0049324e-38
4.9771323 -2.2099042 1.1732713 1.0141519e-38
5.0410795 -2.2075388 1.2134771 9.4961499e-39
4.9840555 -2.208998 1.230714 9.6805411e-39
5.0992298 -2.2049956 1.2820907 9.1273674e-39
4.9043159 -2.2108452 1.2706012 8.9429761e-39
5.1161494 -2.2033927 1.3725303 8.3898023e-39
5.0409074 -2.2636628 -1.1534349 8.2976067e-39
5.2591257 -2.2554884 -0.99895644 9.6805411e-39
5.2482557 -2.2555318 -0.96663362 8.7585848e-39
5.254384 -2.2550821 -0.93811172 9.219563e-39
5.294775 -2.2536342 -0.91668546 9.1273674e-39
5.3178654 -2.2526879 -0.89139414 9.4039542e-39
5.3925676 -2.2502308 -0.87604147 9.3117586e-39
5.4154792 -2.2492838 -0.85005772 1.1985432e-38
5.4209952 -2.2488453 -0.82066137 1.0418106e-38
5.4263573 -2.2484117 -0.79123652 1.1616649e-38
5.4315648 -2.2479823 -0.76178384 1.1063476e-38
5.523241 -2.2450032 -0.74695712 1.0602497e-38
5.5108762 -2.2450886 -0.71415776 1.2169823e-38
5.5850964 -2.2426143 -0.69525903 1.0786889e-38
5.5897994 -2.242193 -0.664976 1.2262019e-38
5.6117263 -2.2412605 -0.63723576 1.0786889e-38
5.7204967 -2.2377446 -0.62166929 1.244641e-38
5.724812 -2.2373288 -0.59067792 1.1801041e-38
5.7638059 -2.2358789 -0.56425136 1.1247867e-38
5.7678204 -2.2354705 -0.53303391 1.1893236e-38
5.8763304 -2.2319353 -0.5144611 1.1616649e-38
5.9149909 -2.2304833 -0.48669371 1.2722997e-38
5.8836689 -2.2311289 -0.45082912 1.3368366e-38
5.8870883 -2.2307334 -0.41898513 1.1893236e-38
5.9602742 -2.2282367 -0.39410359 1.3460562e-38
6.0158725 -2.2262638 -0.36681914 1.1432258e-38
6.001349 -2.2264042 -0.33272192 1.1616649e-38
6.0391655 -2.2249627 -0.30320302 1.0879084e-38
6.1469059 -2.2213984 -0.2788161 1.1708845e-38
6.3596959 -2.2146351 -0.26103371 1.1801041e-38
6.5374084 -2.2089183 -0.23864573 1.1247867e-38
6.5572424 -2.2079923 -0.20448278 1.0141519e-38
6.8575573 -2.1985102 -0.1863008 9.957128e-39
6.3682923 -2.213119 -0.12362309 1.0418106e-38
6.3524413 -2.2132907 -0.088417299 8.6663892e-39
4.4281259 -2.2666523 0.60864311 8.5741936e-39
4.5485196 -2.2625976 0.64379299 8.4819979e-39
4.5287395 -2.2630005 0.66697472 1.1063476e-38
4.5787754 -2.2611756 0.69694734 1.1985432e-38
4.6635718 -2.2582343 0.73113263 1.3368366e-38
4.6608238 -2.2580881 0.75657094 1.2538606e-38
4.7103 -2.2562668 0.78805786 1.1432258e-38
4.7246947 -2.2555676 0.81585276 1.0694693e-38
4.8086548 -2.2526286 0.85262942 1.2538606e-38
4.8052683 -2.2524953 0.87882626 1.1247867e-38
4.8365574 -2.2512434 0.9097777 1.0786889e-38
4.7632976 -2.2533667 0.92621005 1.1340062e-38
4.8464284 -2.2504349 0.96501124 1.0141519e-38
4.8598204 -2.2497551 0.99406409 1.1063476e-38
4.9077506 -2.2479527 1.0287788 1.0325911e-38
4.9727921 -2.2455885 1.0668581 1.0510302e-38
4.9509592 -2.2460465 1.0909798 1.0325911e-38
4.9117093 -2.2470744 1.1118735 1.0325911e-38
5.0107102 -2.2435899 1.1572878 9.7727368e-39
5.0748243 -2.2412367 1.1973554 9.3117586e-39
5.017858 -2.2428429 1.2150589 8.8507805e-39
5.0298114 -2.2421932 1.2457321 9.4039542e-39
5.0588083 -2.2409818 1.2800328 9.4039542e-39
5.1105003 -2.2703855 -1.1747141 9.219563e-39
5.2408748 -2.2654841 -1.0878276 8.5741936e-39
5.2475991 -2.2650616 -1.0593452 9.0351717e-39
5.2884331 -2.2635725 -1.0386481 8.9429761e-39
5.2605996 -2.2642305 -1.0022768 9.5883455e-39
5.2840452 -2.2632837 -0.97742254 9.0351717e-39
5.2901907 -2.2628787 -0.94871557 9.8649324e-39
5.4053855 -2.258831 -0.91196704 8.9429761e-39
5.3594561 -2.2600622 -0.87251574 1.0694693e-38
5.4168344 -2.2580395 -0.85325319 1.0233715e-38
5.4914398 -2.2554684 -0.83660781 1.0418106e-38
5.5833163 -2.252346 -0.822308 9.957128e-39
5.5540261 -2.2530527 -0.78601956 1.0510302e-38
5.5071888 -2.254318 -0.74714947 1.1616649e-38
5.512126 -2.2539444 -0.71727622 1.1524454e-38
5.586328 -2.2513704 -0.69831908 1.1524454e-38
5.6431165 -2.2493451 -0.67596513 1.1432258e-38
5.665062 -2.2484252 -0.64793414 1.1432258e-38
5.6694779 -2.2480628 -0.61723512 1.1340062e-38
5.7433677 -2.2454829 -0.59599793 1.1524454e-38
5.7300897 -2.2456837 -0.56260949 1.1432258e-38
5.7514901 -2.2447758 -0.53375953 1.244641e-38
5.894856 -2.23996 -0.5193873 1.1340062e-38
5.8985953 -2.2396114 -0.48748609 1.2262019e-38
5.9370971 -2.2381468 -0.45939454 1.2907388e-38
5.9055734 -2.2389305 -0.42362702 1.244641e-38
6.0311971 -2.2346592 -0.40379006 1.2722997e-38
6.1217918 -2.2315075 -0.37937459 1.2815193e-38
6.0547919 -2.233433 -0.34009415 1.2262019e-38
6.3027115 -2.2251933 -0.32774615 1.097128e-38
6.3930211 -2.2220314 -0.30053371 1.1893236e-38
6.4481769 -2.2200005 -0.26984403 1.2262019e-38
6.5557771 -2.2162664 -0.24213338 1.1708845e-38
6.5580564 -2.2159414 -0.2067733 1.1616649e-38
6.5601497 -2.2156224 -0.17140172 1.0049324e-38
6.3690581 -2.2215858 -0.12606031 9.1273674e-39
6.3531818 -2.221859 -0.090866372 9.3117586e-39
4.4284711 -2.2802317 0.60469788 8.7585848e-39
4.6013241 -2.2742653 0.64467388 9.219563e-39
4.564013 -2.2753382 0.66644669 1.2077628e-38
4.6140065 -2.2734807 0.69664222 1.3091779e-38
4.6638131 -2.2716255 0.72737384 1.3460562e-38
4.6785069 -2.2709489 0.75475377 1.1801041e-38
4.7802968 -2.2673349 0.79247582 1.1616649e-38
4.7771878 -2.2672532 0.81852186 1.1432258e-38
4.8087978 -2.2659981 0.84898627 1.2722997e-38
4.8402243 -2.2647469 0.87979841 1.1801041e-38
4.8540606 -2.2640886 0.9085573 1.1247867e-38
4.8329525 -2.2646134 0.93249714 1.1063476e-38
4.915997 -2.2616053 0.97172832 1.1247867e-38
4.9987664 -2.2586 1.011849 1.1340062e-38
4.9945054 -2.2585478 1.0390368 1.097128e-38
4.9901032 -2.2585006 1.0662019 1.0786889e-38
5.0201974 -2.2572775 1.0992352 9.7727368e-39
5.032783 -2.256649 1.1295706 1.0049324e-38
5.0451937 -2.2560253 1.1600621 9.0351717e-39
5.0228858 -2.2565877 1.1842736 9.6805411e-39
5.1385002 -2.252429 1.2347419 9.219563e-39
5.1791515 -2.2506237 1.301013 8.9429761e-39
5.1217761 -2.2523875 1.3184057 8.9429761e-39
5.2437611 -2.27267 -1.0724853 8.6663892e-39
5.2504601 -2.2722824 -1.0439967 9.0351717e-39
5.2398787 -2.2724719 -1.0115788 9.3117586e-39
5.3491697 -2.2686529 -1.0059396 1.0049324e-38
5.2868333 -2.2705739 -0.96204019 8.8507805e-39
5.3445258 -2.2684767 -0.94420171 9.3117586e-39
5.4253378 -2.2654335 -0.89991862 1.0694693e-38
5.4311309 -2.2650721 -0.87048078 1.097128e-38
5.4885583 -2.262974 -0.85080451 9.957128e-39
5.4940939 -2.2626195 -0.82103616 1.0141519e-38
5.499474 -2.2622702 -0.7912392 1.0141519e-38
5.5220094 -2.2613425 -0.7644065 1.1893236e-38
5.5790739 -2.2592485 -0.74316812 1.0879084e-38
5.5667024 -2.2594969 -0.71011639 1.0694693e-38
5.5715008 -2.2591658 -0.6799404 1.0694693e-38
5.5935116 -2.2582521 -0.65236837 1.1985432e-38
5.684927 -2.2549872 -0.63474095 1.0786889e-38
5.7067266 -2.2540767 -0.60639316 1.1155671e-38
5.8328471 -2.2496264 -0.59197259 1.1155671e-38
5.8892879 -2.2475348 -0.56719619 1.1708845e-38
5.788734 -2.2507749 -0.52229494 1.1708845e-38
5.9321008 -2.2457252 -0.50761002 1.1985432e-38
5.9183793 -2.2460146 -0.47353217 1.2354214e-38
6.0267258 -2.2421465 -0.45290831 1.244641e-38
5.9777465 -2.2436366 -0.41490433 1.1063476e-38
6.1033821 -2.239171 -0.3945871 1.0879084e-38
6.1065211 -2.2388818 -0.36160347 1.1985432e-38
6.0569844 -2.2403936 -0.32400718 1.1340062e-38
6.3749127 -2.2293365 -0.31719643 1.1801041e-38
6.3951592 -2.2284541 -0.28413996 1.1801041e-38
6.4678078 -2.225775 -0.25465694 1.1524454e-38
6.5052671 -2.2242987 -0.22209615 1.0049324e-38
6.5601029 -2.222224 -0.19022909 1.0325911e-38
6.3692222 -2.2285879 -0.14405972 9.1273674e-39
6.3551416 -2.2286959 -0.074506626 8.7585848e-39
4.602756 -2.2854264 0.65945369 8.9429761e-39
4.6178875 -2.2847557 0.68624663 1.1985432e-38
4.6153927 -2.2847044 0.71143407 1.2077628e-38
4.7525086 -2.2797327 0.7515496 1.2077628e-38
4.6972966 -2.2815371 0.77156383 1.3183975e-38
4.8339319 -2.2765715 0.81357116 1.1063476e-38
4.8307676 -2.2765374 0.83988875 1.0879084e-38
4.7926159 -2.2777407 0.86172271 1.2077628e-38
4.8414388 -2.2758677 0.89479703 1.1708845e-38
4.8552499 -2.2752318 0.92356873 1.1616649e-38
4.8515096 -2.2752171 0.94999665 1.0879084e-38
4.8997536 -2.2733579 0.98419845 1.0602497e-38
4.9998574 -2.2696545 1.0269926 1.1893236e-38
4.9955735 -2.2696545 1.0541767 1.0879084e-38
4.991148 -2.2696595 1.0813382 1.0325911e-38
5.0212116 -2.2684367 1.114399 9.6805411e-39
5.0683713 -2.266603 1.1508504 9.5883455e-39
5.0634384 -2.2666235 1.1783919 9.4039542e-39
5.0583615 -2.2666492 1.2059072 9.1273674e-39
5.1856356 -2.2617881 1.2881687 9.5883455e-39
5.197197 -2.2612145 1.3198271 9.1273674e-39
5.1225953 -2.2637248 1.3336637 8.7585848e-39
5.1792979 -2.261373 1.4043766 8.3898023e-39
5.2389941 -2.2905805 -1.062943 9.4961499e-39
5.2970042 -2.2883952 -1.046337 8.9429761e-39
5.2864466 -2.2886364 -1.0136625 8.8507805e-39
5.3443189 -2.2864525 -0.99627 1.0141519e-38
5.3334589 -2.2867045 -0.96352798 9.1273674e-39
5.3396025 -2.2863536 -0.93453741 9.5883455e-39
5.4203577 -2.2832181 -0.89015692 1.0879084e-38
5.426116 -2.2828794 -0.86071193 1.0141519e-38
5.4489861 -2.2819314 -0.8344804 8.8507805e-39
5.489017 -2.2803714 -0.81119132 1.0510302e-38
5.5289583 -2.2788131 -0.78751171 1.0510302e-38
5.5168643 -2.2791088 -0.75452781 1.1801041e-38
5.6085587 -2.2757015 -0.73898172 1.1524454e-38
5.59618 -2.2760065 -0.70576304 1.0694693e-38
5.583612 -2.2763193 -0.67270058 1.1432258e-38
5.6403484 -2.2741544 -0.65022653 1.0325911e-38
5.6796198 -2.2726123 -0.62466562 1.1708845e-38
5.6839857 -2.2723181 -0.59386575 1.1432258e-38
5.8274803 -2.2670393 -0.5817191 1.1247867e-38
5.8838882 -2.2648761 -0.55687463 1.1616649e-38
5.9227657 -2.2633393 -0.52930921 1.2630801e-38
5.9266291 -2.2630579 -0.49723667 1.2630801e-38
5.9652367 -2.2615285 -0.46908239 1.3183975e-38
5.9338517 -2.2625134 -0.43303296 1.1985432e-38
6.0770183 -2.2572215 -0.41519192 1.2354214e-38
6.1502213 -2.2544413 -0.38909051 1.1340062e-38
6.2758021 -2.2497711 -0.36704788 1.1432258e-38
6.3838215 -2.2457285 -0.34219459 1.1340062e-38
6.2116055 -2.2517865 -0.29351446 1.1708845e-38
6.3718791 -2.2458551 -0.27188072 1.0694693e-38
6.4620051 -2.242449 -0.24363783 1.0879084e-38
6.5520124 -2.2390432 -0.21446399 9.957128e-39
6.6068249 -2.2369058 -0.18225522 1.0879084e-38
4.5785074 -2.307049 0.66661918 8.9429761e-39
4.6635494 -2.3038049 0.7001614 1.1893236e-38
4.7483683 -2.300565 0.73460656 1.2077628e-38
4.6583128 -2.3037724 0.75106609 1.1524454e-38
4.7602205 -2.2998977 0.78837842 1.1524454e-38
4.8095369 -2.2979605 0.82055795 1.2077628e-38
4.8237858 -2.297317 0.84894347 1.2630801e-38
4.8204532 -2.2973232 0.87524033 1.1985432e-38
4.8518009 -2.2960458 0.90621042 1.244641e-38
4.969944 -2.2915525 0.94971043 1.1524454e-38
4.9313149 -2.2928629 0.97171611 1.0510302e-38
4.9968185 -2.2903137 1.0090503 1.2077628e-38
5.0273576 -2.2890584 1.0416714 1.0325911e-38
5.005672 -2.2897406 1.0662316 1.1155671e-38
5.0011992 -2.289784 1.0934786 1.0141519e-38
5.0658302 -2.2872584 1.1326312 1.0049324e-38
5.043714 -2.2879565 1.1571195 9.7727368e-39
5.0906034 -2.286087 1.1940554 9.4961499e-39
5.1545105 -2.283581 1.2347621 9.4961499e-39
5.1319089 -2.284296 1.2594422 9.219563e-39
5.143651 -2.283731 1.2907829 9.0351717e-39
5.1896296 -2.2818875 1.329325 9.0351717e-39
5.2009683 -2.2813351 1.3611475 8.2054111e-39
5.1796947 -2.3029838 -1.1655476 8.4819979e-39
5.2861404 -2.2987163 -1.1014436 8.2054111e-39
5.25877 -2.2996557 -1.0646552 8.9429761e-39
5.2996478 -2.2980285 -1.0439235 8.2054111e-39
5.3061752 -2.2976928 -1.0151113 9.7727368e-39
5.3811941 -2.2947783 -1.0012803 1.0694693e-38
5.370317 -2.2950974 -0.96837735 1.0325911e-38
5.3936477 -2.2941277 -0.94276959 9.3117586e-39
5.4340787 -2.2925127 -0.92043328 9.0351717e-39
5.4399586 -2.2921999 -0.89091802 1.0233715e-38
5.4801888 -2.290591 -0.86797857 1.0049324e-38
5.4857936 -2.290288 -0.8382225 9.219563e-39
5.5776739 -2.2867265 -0.82404757 1.0049324e-38
5.5311399 -2.2883923 -0.78468716 1.0418106e-38
5.5536265 -2.2874506 -0.75760591 1.2077628e-38
5.627985 -2.2845469 -0.73886621 1.097128e-38
5.7023034 -2.2816422 -0.7193737 1.0049324e-38
5.7071266 -2.2813656 -0.68845576 1.1708845e-38
5.763916 -2.2791216 -0.66524428 1.097128e-38
5.7336779 -2.2801723 -0.62903225 1.2354214e-38
5.6684217 -2.2825513 -0.58837152 1.1801041e-38
5.8467002 -2.2756999 -0.58066964 1.1340062e-38
5.7985191 -2.2774315 -0.54235977 1.2262019e-38
5.9593496 -2.2712348 -0.53002954 1.2354214e-38
5.9282827 -2.2723169 -0.49370795 1.392154e-38
5.9668398 -2.2707562 -0.4654853 1.3368366e-38
6.075141 -2.2665451 -0.44426492 1.1616649e-38
6.0785203 -2.2663181 -0.41139704 1.3552758e-38
6.2740798 -2.2587841 -0.39681101 1.1801041e-38
6.3296928 -2.2565672 -0.3676171 1.2169823e-38
6.3501701 -2.2556858 -0.33489659 1.2077628e-38
6.4055042 -2.2534769 -0.30475453 1.1801041e-38
6.3555961 -2.2552743 -0.26626727 1.1893236e-38
6.5683284 -2.247067 -0.24639116 1.1340062e-38
6.5881958 -2.2462041 -0.21205474 9.4961499e-39
6.4149952 -2.2527025 -0.16628954 9.0351717e-39
4.5782576 -2.3205812 0.66776919 9.1273674e-39
4.6807146 -2.3165517 0.70319837 1.2169823e-38
4.7479892 -2.3138773 0.7360571 1.3829344e-38
4.6928315 -2.3159301 0.75619674 1.2815193e-38
4.7946472 -2.3119185 0.7938723 1.2815193e-38
4.8438835 -2.3099363 0.8263219 1.1801041e-38
4.8232045 -2.3106565 0.85052782 1.3460562e-38
4.9069071 -2.3073385 0.88824439 1.1893236e-38
4.9207344 -2.3067226 0.91734987 1.2538606e-38
4.9517879 -2.305439 0.94908607 1.1616649e-38
5.0000262 -2.3034885 0.98372537 1.2077628e-38
5.0133138 -2.3028908 1.0135908 1.1616649e-38
5.0090804 -2.3029721 1.0408758 1.1524454e-38
5.0567107 -2.3010416 1.0766326 9.7727368e-39
5.0694671 -2.3004627 1.1070664 1.0879084e-38
5.0820484 -2.29989 1.1376575 1.0694693e-38
5.16361 -2.2966378 1.180819 1.0325911e-38
5.1584992 -2.2967503 1.2088894 1.0049324e-38
5.1877532 -2.295527 1.2435018 9.4039542e-39
5.1478381 -2.2969923 1.2649478 1.0233715e-38
5.2456079 -2.2931027 1.3137261 9.957128e-39
5.2570028 -2.2925711 1.3457798 9.4039542e-39
5.1994791 -2.2947221 1.3634007 8.7585848e-39
5.3038244 -2.3059857 -1.062065 8.4819979e-39
5.2933784 -2.3063593 -1.0292729 8.2054111e-39
5.3170252 -2.3053765 -1.0042841 8.8507805e-39
5.3748856 -2.3030317 -0.98656058 9.4961499e-39
5.4155283 -2.3013716 -0.96461469 9.1273674e-39
5.4732938 -2.2990289 -0.94583523 9.7727368e-39
5.4793591 -2.2987447 -0.91607565 9.7727368e-39
5.5197425 -2.2970934 -0.89304215 8.5741936e-39
5.4737687 -2.2988822 -0.85317463 9.8649324e-39
5.4966207 -2.297929 -0.82661176 1.0418106e-38
5.5712123 -2.2949135 -0.80916113 1.0694693e-38
5.6284723 -2.292588 -0.7879405 1.1063476e-38
5.6337094 -2.2923357 -0.75736988 1.1708845e-38
5.6214528 -2.2927814 -0.72393692 1.0233715e-38
5.6957502 -2.2897747 -0.70438153 1.0325911e-38
5.7179122 -2.288847 -0.67611289 1.1893236e-38
5.8094459 -2.285151 -0.65788716 1.0510302e-38
5.7270517 -2.2883947 -0.61401325 1.1893236e-38
5.7835846 -2.2860947 -0.59006888 1.1063476e-38
5.9619308 -2.2789304 -0.58157766 1.1247867e-38
5.8615255 -2.2828944 -0.53607631 1.3183975e-38
5.970067 -2.2785151 -0.51692575 1.2630801e-38
6.0785723 -2.2741356 -0.49665827 1.2907388e-38
5.9600687 -2.2788241 -0.45026866 1.2538606e-38
6.1207509 -2.2723582 -0.43445247 1.2262019e-38
6.0716987 -2.2742727 -0.3960858 1.2169823e-38
6.2672329 -2.2664106 -0.38133436 1.2722997e-38
6.3228188 -2.2641408 -0.35209334 1.2169823e-38
6.3957782 -2.2611759 -0.32375172 1.0879084e-38
6.3985758 -2.2610159 -0.28916648 1.0879084e-38
6.5588484 -2.2545567 -0.26610419 1.1340062e-38
6.543819 -2.2551088 -0.22947516 1.1247867e-38
6.5636516 -2.2542663 -0.19521365 1.1063476e-38
6.8463387 -2.2429025 -0.17585258 9.957128e-39
4.5706944 -2.3329835 0.68181539 9.219563e-39
4.6731162 -2.3288271 0.71733135 1.1985432e-38
4.7403603 -2.3260849 0.75024706 1.4013736e-38
4.8423057 -2.3219447 0.78774947 1.2354214e-38
4.7869697 -2.324136 0.80810189 1.3552758e-38
4.905921 -2.319309 0.84906214 1.2722997e-38
4.8154802 -2.3229144 0.86478168 1.244641e-38
4.899147 -2.3195069 0.90256917 1.1432258e-38
4.9651527 -2.3168099 0.93885964 1.2077628e-38
5.0135283 -2.3148222 0.97337788 1.244641e-38
4.9921846 -2.315644 0.99812919 1.1616649e-38
5.0922523 -2.3115714 1.0413275 1.0879084e-38
5.139967 -2.3096082 1.0773294 1.0694693e-38
5.1354523 -2.3097506 1.1053152 1.0510302e-38
5.0615234 -2.3126931 1.1215293 1.1524454e-38
5.1605873 -2.3086572 1.1672691 1.0602497e-38
5.155602 -2.3088183 1.1953617 1.0694693e-38
5.1504698 -2.3089855 1.2234279 8.9429761e-39
5.2087016 -2.3065543 1.2930357 8.8507805e-39
5.2719226 -2.3039606 1.3352982 9.1273674e-39
5.3004518 -2.302767 1.3711119 8.6663892e-39
5.3672018 -2.3370426 -1.0606472 8.7585848e-39
5.3054743 -2.3399034 -1.0157627 8.7585848e-39
5.369843 -2.3372688 -0.96910787 8.5741936e-39
5.4104767 -2.3355777 -0.94714713 8.9429761e-39
5.4682312 -2.3331277 -0.92834646 9.7727368e-39
5.4742908 -2.3329744 -0.89858478 8.9429761e-39
5.5318995 -2.330534 -0.87890905 9.6805411e-39
5.5377002 -2.3303931 -0.84881437 9.957128e-39
5.5951505 -2.3279629 -0.82826442 9.5883455e-39
5.6006851 -2.3278351 -0.79783899 9.6805411e-39
5.5887599 -2.3284802 -0.76437467 1.1063476e-38
5.6285944 -2.3268337 -0.7398231 1.2354214e-38
5.6509986 -2.3259597 -0.71205258 9.219563e-39
5.7079649 -2.3235579 -0.6895501 1.097128e-38
5.7127724 -2.3234639 -0.65853548 1.1801041e-38
5.7347922 -2.3226092 -0.63005209 1.0418106e-38
5.7740641 -2.3209934 -0.60382754 1.1340062e-38
5.9698243 -2.3124709 -0.59857899 1.1708845e-38
5.9741526 -2.312403 -0.56619328 1.2169823e-38
5.9608879 -2.3131108 -0.53159416 1.392154e-38
5.9648662 -2.3130579 -0.49925628 1.2722997e-38
6.0733523 -2.3083999 -0.47894889 1.2907388e-38
6.1468792 -2.3052857 -0.45369041 1.1708845e-38
6.1504474 -2.3052545 -0.42037892 1.1432258e-38
6.1713171 -2.3044617 -0.3887831 1.1985432e-38
6.2794518 -2.2998312 -0.36519834 1.2354214e-38
6.4749751 -2.2913625 -0.34825063 1.1524454e-38
6.3729844 -2.2959764 -0.30446735 1.1708845e-38
6.5158334 -2.2898309 -0.28091082 1.1340062e-38
6.3608589 -2.2967677 -0.23418918 1.1524454e-38
6.5560112 -2.288332 -0.21277934 1.1432258e-38
6.5583143 -2.2883639 -0.17732711 1.0141519e-38
6.6130304 -2.2860975 -0.14486308 9.0351717e-39
4.6679206 -2.3742545 0.73451483 1.097128e-38
4.7351499 -2.3714437 0.76745516 1.3091779e-38
4.8719835 -2.3656275 0.80887657 1.2999584e-38
4.9038515 -2.3643515 0.83955264 1.2722997e-38
4.848372 -2.3668485 0.85995972 1.1801041e-38
4.8973508 -2.3648348 0.89309174 1.1708845e-38
4.9635301 -2.3620813 0.92905998 1.1801041e-38
5.012074 -2.360091 0.96334195 1.1340062e-38
5.0603986 -2.3581121 0.99815124 1.1524454e-38
5.0216432 -2.3598871 1.0205882 1.0786889e-38
5.0869465 -2.3571796 1.0586636 1.1432258e-38
5.0826173 -2.3574719 1.0863981 1.0325911e-38
5.1994467 -2.3525519 1.1340768 1.0325911e-38
5.1600938 -2.354353 1.1565133 1.1155671e-38
5.155252 -2.3546691 1.1846298 1.0510302e-38
5.2021098 -2.3527641 1.2220941 9.7727368e-39
5.2832527 -2.3493893 1.2665054 8.3898023e-39
5.2205715 -2.3523009 1.3138093 8.5741936e-39
5.2665458 -2.3504398 1.3526988 8.8507805e-39
5.2950654 -2.349329 1.3885229 8.4819979e-39
5.3405356 -2.3474936 1.4283425 8.3898023e-39
5.342608 -2.3561199 -1.0564488 8.8507805e-39
5.3835931 -2.3544405 -1.0351501 9.4961499e-39
5.3730922 -2.3550782 -1.0019634 8.8507805e-39
5.4481883 -2.3518684 -0.98762923 9.219563e-39
5.454576 -2.3517482 -0.95793593 9.0351717e-39
5.4608088 -2.351635 -0.92820972 9.5883455e-39
5.5013146 -2.3499846 -0.90539354 9.957128e-39
5.5417376 -2.3483403 -0.88218492 9.4961499e-39
5.5303221 -2.3490195 -0.8487125 9.4961499e-39
5.639585 -2.344296 -0.83779126 9.957128e-39
5.5933356 -2.3465352 -0.79776865 1.0786889e-38
5.6160283 -2.3456893 -0.77033651 1.0786889e-38
5.6212773 -2.3456235 -0.73976696 1.1801041e-38
5.6783581 -2.3432438 -0.71768248 9.6805411e-39
5.7874002 -2.3385489 -0.70326614 1.1247867e-38
5.7922964 -2.3385036 -0.67179942 1.1985432e-38
5.7275367 -2.341562 -0.63004923 1.0694693e-38
5.9232969 -2.3330154 -0.62610555 1.1155671e-38
5.9625854 -2.3314431 -0.59869242 1.2999584e-38
5.9669318 -2.3314266 -0.56630909 1.2999584e-38
5.9885325 -2.3306434 -0.53610331 1.3644953e-38
5.9576831 -2.332191 -0.49936804 1.2630801e-38
6.1185145 -2.3252282 -0.48516557 1.1985432e-38
6.1920862 -2.322145 -0.45966923 1.2354214e-38
6.1433077 -2.3244898 -0.42058289 1.3091779e-38
6.2690415 -2.3191001 -0.39945292 1.2262019e-38
6.2723427 -2.3191383 -0.36546645 1.2538606e-38
6.4678745 -2.3106709 -0.34861541 1.2077628e-38
6.3659091 -2.3153689 -0.30478212 1.2907388e-38
6.4912634 -2.3100162 -0.2799204 1.1340062e-38
6.5464783 -2.3077676 -0.24862334 1.0233715e-38
6.5665073 -2.3070748 -0.21437745 1.097128e-38
6.6038895 -2.3056178 -0.18103564 9.957128e-39
6.6060438 -2.3057153 -0.14529757 9.1273674e-39
4.7488155 -2.3917735 0.74377996 1.1432258e-38
4.7461553 -2.3920295 0.76978195 1.3460562e-38
4.8655462 -2.3870163 0.80929482 1.3183975e-38
4.8799868 -2.386538 0.83793128 1.1155671e-38
4.9291344 -2.3845644 0.87096441 1.2354214e-38
4.9606524 -2.3833535 0.90232223 1.244641e-38
5.0093937 -2.3814027 0.93632507 1.2169823e-38
5.005723 -2.3817103 0.96368986 1.2169823e-38
5.08884 -2.3782859 1.003435 1.1893236e-38
5.0326977 -2.3808508 1.0235019 1.1340062e-38
5.1500859 -2.3759606 1.0696223 1.0879084e-38
5.1630611 -2.3755584 1.1004754 1.1524454e-38
5.245183 -2.3721919 1.1428627 1.2077628e-38
5.153851 -2.3762639 1.1567867 1.1524454e-38
5.2528248 -2.3721805 1.2030576 1.0418106e-38
5.2477555 -2.3725562 1.2316942 1.0786889e-38
5.242537 -2.3729382 1.2603039 1.0141519e-38
5.30617 -2.3703775 1.3020737 8.4819979e-39
5.3005819 -2.3707774 1.3309884 9.0351717e-39
5.3745217 -2.3640232 -1.0445963 9.1273674e-39
5.3811755 -2.3639486 -1.0152445 1.0233715e-38
5.3876753 -2.3638813 -0.9858582 9.219563e-39
5.4455442 -2.3614018 -0.96741611 8.6663892e-39
5.4517932 -2.3613484 -0.93769324 9.6805411e-39
5.4750986 -2.3604956 -0.91141713 9.4961499e-39
5.4810543 -2.3604567 -0.88154024 9.4961499e-39
5.6075835 -2.3547759 -0.87472147 9.5883455e-39
5.5442891 -2.3579798 -0.83131886 1.0049324e-38
5.5843868 -2.3563483 -0.80731535 1.0325911e-38
5.7281704 -2.3498812 -0.80108202 1.1063476e-38
5.6469846 -2.353915 -0.75519973 9.4961499e-39
5.738759 -2.349884 -0.73865104 1.1155671e-38
5.6917815 -2.3523185 -0.69913143 1.0694693e-38
5.7834063 -2.3483036 -0.68143994 1.0786889e-38
5.8055258 -2.3475249 -0.65252322 1.1432258e-38
5.9144239 -2.3427193 -0.63580722 1.2354214e-38
5.9015369 -2.3435707 -0.60124171 1.2722997e-38
6.0103154 -2.338783 -0.58292919 1.2722997e-38
5.9797068 -2.340457 -0.54583651 1.392154e-38
6.0709019 -2.3364942 -0.52390301 1.2630801e-38
6.1097093 -2.3349595 -0.49495953 1.3644953e-38
6.2880073 -2.3269873 -0.48109937 1.1524454e-38
6.2742405 -2.3278892 -0.44512638 1.2169823e-38
6.3825803 -2.3231621 -0.42157179 1.2354214e-38
6.4558878 -2.3200567 -0.39358214 1.2630801e-38
6.4591236 -2.3201807 -0.35857278 1.2630801e-38
6.4796739 -2.319509 -0.32502258 1.2262019e-38
6.3600149 -2.325278 -0.28020221 1.0510302e-38
6.3451462 -2.3262286 -0.24440493 9.957128e-39
6.557827 -2.316746 -0.2243824 1.1155671e-38
6.5777011 -2.3161116 -0.18994987 1.1063476e-38
6.6149306 -2.3146846 -0.15633847 1.1155671e-38
3.218107 -2.4708331 0.13099127 9.219563e-39
4.7408123 -2.4065008 0.73459923 9.5883455e-39
4.8429575 -2.4021583 0.7715975 1.1893236e-38
4.8924832 -2.4001639 0.80390739 1.2538606e-38
4.9766989 -2.3966329 0.84078181 1.1247867e-38
4.9386268 -2.3985362 0.86380541 1.2630801e-38
4.9875722 -2.3965783 0.89743793 1.244641e-38
5.0014834 -2.3961768 0.92702109 1.2538606e-38
5.1544209 -2.3896239 0.97581422 1.2169823e-38
5.1505089 -2.3900192 1.0039811 1.1893236e-38
5.0769563 -2.3934906 1.0218749 1.0879084e-38
5.1422429 -2.3908288 1.0602512 1.1616649e-38
5.2419634 -2.3866549 1.104823 1.1708845e-38
5.2547069 -2.3863206 1.1362826 1.1340062e-38
5.1460581 -2.3913302 1.1474127 9.5883455e-39
5.2450519 -2.3872018 1.1936371 9.957128e-39
5.2399993 -2.3876522 1.2222757 1.0049324e-38
5.372942 -2.3820472 1.2764755 8.9429761e-39
5.281199 -2.3863039 1.289338 8.4819979e-39
5.3606429 -2.3813908 -1.1079547 8.5741936e-39
5.4086938 -2.3796937 -1.057264 8.7585848e-39
5.5077448 -2.3755813 -1.0170121 8.7585848e-39
5.45186 -2.3788309 -0.94254786 9.219563e-39
5.544024 -2.3747635 -0.93027997 9.7727368e-39
5.5500846 -2.3747773 -0.90004849 9.4039542e-39
5.6249604 -2.3715401 -0.88304794 1.0049324e-38
5.6480331 -2.3707547 -0.85561812 1.0418106e-38
5.5845933 -2.3740497 -0.81230414 9.6805411e-39
5.7283831 -2.3675787 -0.80621415 1.0418106e-38
5.7164836 -2.3684459 -0.77206504 1.0049324e-38
5.7390389 -2.367692 -0.7437948 1.097128e-38
5.7961392 -2.3653185 -0.72085941 1.1340062e-38
5.8705149 -2.3621407 -0.70003307 1.1616649e-38
5.7711639 -2.367106 -0.65255523 1.1524454e-38
5.9148135 -2.3606925 -0.64112765 1.2815193e-38
5.9367509 -2.3599811 -0.61136508 1.2354214e-38
5.9063268 -2.3617158 -0.57444751 1.2722997e-38
6.0150285 -2.3569596 -0.55567378 1.2169823e-38
6.0539827 -2.3554626 -0.52724731 1.2999584e-38
6.11025 -2.3531637 -0.50047684 1.3460562e-38
6.2013092 -2.3492532 -0.47703958 1.1524454e-38
6.2748342 -2.3461654 -0.45080844 1.2815193e-38
6.2958484 -2.34552 -0.41852233 1.2169823e-38
6.3691397 -2.3424547 -0.39106411 1.1801041e-38
6.5997124 -2.3321185 -0.37711832 1.1340062e-38
6.4803958 -2.3379784 -0.33091125 1.0786889e-38
6.465807 -2.3389902 -0.29438043 1.0233715e-38
6.3459558 -2.3448553 -0.25016084 9.4961499e-39
6.5411396 -2.3361936 -0.2291328 9.4961499e-39
6.5785685 -2.3348117 -0.19593839 1.097128e-38
6.5983047 -2.3342464 -0.16133057 8.7585848e-39
3.2193375 -2.4904463 0.12834564 8.6663892e-39
4.9698758 -2.4169326 0.75283307 9.3117586e-39
4.8448706 -2.4227471 0.76732242 1.1708845e-38
4.8595161 -2.4223542 0.7957691 1.2169823e-38
4.9263444 -2.4196508 0.83037794 1.1893236e-38
4.9755111 -2.4177363 0.86361259 1.1985432e-38
4.9896202 -2.4173768 0.8930167 1.1524454e-38
5.0035629 -2.4170265 0.92258555 1.1524454e-38
5.1043472 -2.4128475 0.96413529 1.2077628e-38
5.1874485 -2.4094584 1.004305 1.244641e-38
5.1486416 -2.4114428 1.0275453 1.1616649e-38
5.161828 -2.4111383 1.05831 1.0786889e-38
5.2442336 -2.4077966 1.100145 1.0879084e-38
5.2570109 -2.4075172 1.1315913 1.097128e-38
5.269608 -2.4072475 1.1631949 1.0141519e-38
5.2474174 -2.4085016 1.1889546 9.4961499e-39
5.3806982 -2.4029601 1.2423234 9.4961499e-39
5.4389586 -2.4010007 1.3140638 9.1273674e-39
5.4671416 -2.3942144 -1.0459462 9.1273674e-39
5.4738216 -2.3942773 -1.0161287 9.0351717e-39
5.49751 -2.3935249 -0.98997867 8.2976067e-39
5.4523473 -2.3960698 -0.94916624 8.5741936e-39
5.6133399 -2.3887556 -0.95112634 8.6663892e-39
5.6023021 -2.389672 -0.91711217 9.1273674e-39
5.625545 -2.3889525 -0.88992983 1.097128e-38
5.6314073 -2.3890624 -0.85928458 1.1432258e-38
5.6543818 -2.3883591 -0.83176976 9.6805411e-39
5.7118049 -2.3860233 -0.81018466 1.0602497e-38
5.7518578 -2.3845174 -0.78504753 1.0786889e-38
5.8091297 -2.3822012 -0.76240808 1.0602497e-38
5.8143234 -2.3823533 -0.73080277 1.1616649e-38
5.8713984 -2.3800566 -0.70729172 1.2077628e-38
5.7894874 -2.3843172 -0.66228104 1.0694693e-38
5.8636637 -2.3812203 -0.64088017 1.2077628e-38
5.9203897 -2.3789527 -0.61629266 1.2077628e-38
5.9770241 -2.3766963 -0.59113467 1.244641e-38
6.0161481 -2.3752675 -0.56315517 1.244641e-38
6.0551486 -2.3738489 -0.53478849 1.2722997e-38
6.1986442 -2.3675511 -0.51844764 1.3183975e-38
6.2200046 -2.3669717 -0.48678237 1.2354214e-38
6.1539207 -2.37047 -0.44548482 1.1616649e-38
6.2797246 -2.3650286 -0.42463809 1.1893236e-38
6.3880057 -2.3604176 -0.40078864 1.1524454e-38
6.6011252 -2.3509543 -0.38548914 1.1432258e-38
6.4643893 -2.3577328 -0.3375836 1.0602497e-38
6.4673538 -2.3580277 -0.30255124 9.219563e-39
6.5603085 -2.3546009 -0.23866367 8.7585848e-39
6.5627546 -2.3549254 -0.20313023 1.1155671e-38
6.6175966 -2.3528385 -0.1707662 1.2999584e-38
4.9731231 -2.4385445 0.74689311 9.6805411e-39
4.9879003 -2.4382305 0.77588052 1.0879084e-38
4.9326749 -2.4409962 0.79751557 1.244641e-38
5.0693207 -2.4353323 0.84027499 1.1801041e-38
4.9789391 -2.4396379 0.85766083 1.244641e-38
5.0976691 -2.4347796 0.89996952 1.2077628e-38
5.0419221 -2.4375627 0.92108113 1.1985432e-38
5.1775618 -2.431987 0.96733379 1.3091779e-38
5.2432861 -2.429476 1.0053132 1.1524454e-38
5.1870975 -2.4322784 1.0263656 1.1708845e-38
5.252408 -2.4297955 1.0651226 1.1432258e-38
5.2654009 -2.4295914 1.0964812 1.0879084e-38
5.3302312 -2.4271443 1.136375 1.1340062e-38
5.3081732 -2.4284639 1.1625557 1.0510302e-38
5.2686849 -2.4305336 1.1855559 9.219563e-39
5.4020376 -2.4251475 1.2388123 8.5741936e-39
5.4431224 -2.4241271 1.3073978 8.4819979e-39
5.5237064 -2.4210455 1.3537303 8.2054111e-39
5.493423 -2.4126105 -1.0572797 8.5741936e-39
5.5687366 -2.409405 -1.0425229 9.0351717e-39
5.5239282 -2.4119906 -1.0009826 8.2976067e-39
5.599103 -2.4088035 -0.98534745 8.2054111e-39
5.5710788 -2.4105775 -0.9477275 8.8507805e-39
5.5944729 -2.4098833 -0.92078024 9.0351717e-39
5.6522126 -2.4075491 -0.90033644 9.6805411e-39
5.6236362 -2.4093444 -0.86298132 1.0141519e-38
5.7675214 -2.4029114 -0.8577286 9.6805411e-39
5.7732253 -2.4030774 -0.82630509 1.0049324e-38
5.8306694 -2.4007838 -0.80383986 9.5883455e-39
5.7841401 -2.4034326 -0.76337081 1.0049324e-38
5.8413458 -2.4011579 -0.74030489 9.957128e-39
5.8984742 -2.3988943 -0.71666688 1.097128e-38
5.9381599 -2.3974624 -0.68982452 1.0510302e-38
5.9082355 -2.3993192 -0.65242654 9.957128e-39
6.1041236 -2.3905349 -0.64722341 1.1155671e-38
6.0217237 -2.394866 -0.60224324 1.0786889e-38
6.1131487 -2.3910222 -0.58083183 1.1708845e-38
6.1696715 -2.3888273 -0.55413175 1.1801041e-38
6.208653 -2.3874609 -0.52477652 1.2630801e-38
6.3696208 -2.3803978 -0.50899231 1.1616649e-38
6.1465683 -2.3912799 -0.4496868 1.0418106e-38
6.3946524 -2.3801746 -0.44163734 1.1432258e-38
6.3806987 -2.3812964 -0.40521473 1.0786889e-38
6.5938339 -2.371866 -0.39011887 8.3898023e-39
6.4746385 -2.3778808 -0.3436197 8.7585848e-39
6.7401447 -2.3660607 -0.33016562 8.6663892e-39
6.5731673 -2.3752437 -0.20889531 9.8649324e-39
6.6105218 -2.3740065 -0.17541504 1.0233715e-38
6.6126475 -2.3743937 -0.13958503 9.4961499e-39
4.9669685 -2.4606926 0.74379921 8.9429761e-39
4.964303 -2.4611797 0.77100009 9.5883455e-39
4.8741841 -2.4654944 0.78886896 9.7727368e-39
5.0632606 -2.457598 0.83708787 1.1985432e-38
5.0252223 -2.4596357 0.86069894 1.0786889e-38
5.1788249 -2.4533229 0.90744346 1.1247867e-38
5.1578817 -2.4546213 0.93352276 1.0325911e-38
5.1716294 -2.4544113 0.96404135 1.0879084e-38
5.2895794 -2.4496887 1.0091922 1.2077628e-38
5.2681389 -2.4510136 1.0355766 1.1247867e-38
5.2639441 -2.451591 1.064351 1.0879084e-38
5.3637338 -2.4476852 1.1092113 1.0049324e-38
5.4111772 -2.4460478 1.1468124 9.8649324e-39
5.3717456 -2.4481509 1.1706015 8.9429761e-39
5.5871496 -2.4410136 1.3633792 8.5741936e-39
5.5550132 -2.4550049 -1.0763414 8.3898023e-39
5.5618925 -2.4552281 -1.0460031 9.0351717e-39
5.6438708 -2.4523451 -0.99982989 9.219563e-39
5.6675425 -2.451757 -0.97258967 9.1273674e-39
5.6910892 -2.4511783 -0.94513553 9.7727368e-39
5.6972809 -2.4514449 -0.91408664 9.5883455e-39
5.7205567 -2.4508843 -0.88629729 9.6805411e-39
5.7609682 -2.4494989 -0.86149681 1.0879084e-38
5.7840023 -2.4489584 -0.83319354 1.0786889e-38
5.8069043 -2.4484274 -0.80467951 9.4961499e-39
5.898922 -2.4445791 -0.78767139 1.0786889e-38
5.88696 -2.4457331 -0.75269794 1.1155671e-38
6.0135388 -2.440254 -0.73985797 1.0694693e-38
5.8971581 -2.4464011 -0.68852758 1.1524454e-38
6.0930772 -2.4376402 -0.6846236 1.1247867e-38
6.0979023 -2.4380054 -0.65147281 1.1893236e-38
6.2243271 -2.4325976 -0.63498014 1.0602497e-38
6.1070313 -2.4387605 -0.58509791 1.1063476e-38
6.1810164 -2.4358554 -0.5606789 1.2630801e-38
6.2026238 -2.4354351 -0.52917892 1.1893236e-38
6.2066345 -2.435847 -0.49545678 1.0879084e-38
6.3675456 -2.4288836 -0.47905385 1.1893236e-38
6.3887548 -2.4285033 -0.44630352 1.0510302e-38
6.3923302 -2.428952 -0.41160741 1.097128e-38
6.468895 -2.4266121 -0.34840325 8.6663892e-39
6.7344232 -2.4148753 -0.33531901 8.4819979e-39
6.5851545 -2.4237168 -0.21501774 9.6805411e-39
6.5875177 -2.4242382 -0.17929657 1.097128e-38
4.9078789 -2.5164971 0.76300198 9.957128e-39
5.0099344 -2.5125647 0.80095077 9.3117586e-39
5.0593643 -2.510921 0.83419079 1.2354214e-38
5.1260347 -2.5085456 0.86998564 1.2077628e-38
5.1750393 -2.5069416 0.90438133 1.1985432e-38
5.2238302 -2.5053566 0.93930715 1.097128e-38
5.2724028 -2.5037906 0.9747619 1.1893236e-38
5.285954 -2.5037284 1.0059696 1.1985432e-38
5.3341026 -2.5021968 1.0422958 1.097128e-38
5.2604055 -2.5058496 1.0611606 1.0510302e-38
5.4817863 -2.4969859 1.1245025 1.0141519e-38
5.4077687 -2.500654 1.1434121 9.957128e-39
5.4550314 -2.4991927 1.1814657 9.8649324e-39
5.4500995 -2.4999382 1.2112396 9.4961499e-39
5.4796143 -2.4992373 1.2470345 8.3898023e-39
5.5840816 -2.4965096 1.3597207 8.2054111e-39
5.5733366 -2.4729674 -1.0836234 8.7585848e-39
5.6487889 -2.4698515 -1.0685877 9.4039542e-39
5.6384845 -2.4709558 -1.0340143 8.5741936e-39
5.6451511 -2.471226 -1.0032524 9.1273674e-39
5.7032261 -2.4689851 -0.98318571 9.3117586e-39
5.6924176 -2.4701123 -0.94859886 1.0141519e-38
5.7330899 -2.4687321 -0.92434812 8.9429761e-39
5.7736702 -2.4673631 -0.8997041 1.0049324e-38
5.779633 -2.4676781 -0.86823601 1.0049324e-38
5.7854304 -2.4680009 -0.83673733 9.957128e-39
5.8429461 -2.4658289 -0.81431174 1.0510302e-38
5.9696302 -2.4603374 -0.80308771 1.1801041e-38
5.9750853 -2.4606943 -0.77059454 1.1340062e-38
5.9803705 -2.4610591 -0.73807335 1.0694693e-38
6.0375476 -2.4589415 -0.71353841 1.1616649e-38
6.07727 -2.4576676 -0.68585122 1.0694693e-38
6.0821109 -2.4580624 -0.65279603 1.1985432e-38
6.2259316 -2.4518495 -0.63889962 1.244641e-38
6.1608996 -2.4555733 -0.59583932 1.1801041e-38
6.2871976 -2.4502244 -0.577856 1.1985432e-38
6.3611913 -2.447371 -0.55219936 1.1985432e-38
6.6443834 -2.4346676 -0.55018342 1.097128e-38
6.3692889 -2.4482875 -0.48309714 1.1893236e-38
6.5127563 -2.4421995 -0.46331438 9.957128e-39
6.3941331 -2.4484193 -0.41567281 1.0418106e-38
6.5696144 -2.4441872 -0.21804135 9.1273674e-39
6.5895271 -2.4439309 -0.18353097 8.5741936e-39
4.9107194 -2.5369503 0.76017213 9.1273674e-39
5.2748137 -2.5217786 0.82539886 1.1155671e-38
5.1844692 -2.5261998 0.84464234 1.1340062e-38
5.1289701 -2.5291107 0.86696947 1.1616649e-38
5.1431322 -2.5290322 0.89712572 1.1985432e-38
5.1571264 -2.5289648 0.92744702 1.0786889e-38
5.3276725 -2.5222373 0.97846401 1.1524454e-38
5.3238134 -2.5229502 1.0075608 1.1801041e-38
5.2850242 -2.5251429 1.0317098 1.0141519e-38
5.4372706 -2.5192547 1.0835747 1.1616649e-38
5.4849482 -2.5178065 1.1211812 1.1063476e-38
5.5844312 -2.5141897 1.1675198 1.0141519e-38
5.5275793 -2.5171542 1.1894761 1.0233715e-38
5.5918903 -2.5150359 1.2312901 9.957128e-39
5.7023759 -2.5115964 1.3139138 8.3898023e-39
5.6967587 -2.5124247 1.3449681 9.5883455e-39
5.6909785 -2.5132599 1.3759925 8.6663892e-39
5.4532089 -2.5039151 -1.2508861 8.3898023e-39
5.5273161 -2.502249 -1.1739531 8.2976067e-39
5.5761561 -2.5011847 -1.1215746 9.7727368e-39
5.6346183 -2.499027 -1.1029648 1.0141519e-38
5.6759152 -2.4977012 -1.0799172 9.3117586e-39
5.6656847 -2.4988408 -1.0451554 9.7727368e-39
5.706758 -2.4975352 -1.0215865 9.4961499e-39
5.7133708 -2.4978733 -0.99043709 9.3117586e-39
5.8058519 -2.494144 -0.97676724 9.5883455e-39
5.7433314 -2.4977586 -0.93144935 1.0141519e-38
5.8011985 -2.495682 -0.91007644 1.0694693e-38
5.8590055 -2.4936197 -0.88812953 1.0694693e-38
5.8649182 -2.4940038 -0.85618484 1.1155671e-38
