# .PCD v0.7 - Point Cloud Data file format
VERSION 0.7
FIELDS x y z rgb
SIZE 4 4 4 4
TYPE F F F F
COUNT 1 1 1 1
WIDTH 1045
HEIGHT 1
VIEWPOINT 23.95 4.74 5.78 0.43241 0.0330534 0.0781133 0.897679
POINTS 1045
DATA ascii
9.7714806 -1.1949649 -0.89929765 1.244641e-38
9.776926 -1.1924103 -0.84727418 1.0602497e-38
9.8867559 -1.1985945 -0.80491424 1.1432258e-38
9.8917084 -1.1959667 -0.75228977 1.2538606e-38
9.9313049 -1.1962183 -0.70250529 1.2999584e-38
9.9357233 -1.1935356 -0.64965105 9.5883455e-39
9.9398651 -1.1908299 -0.59677559 1.6410822e-38
9.9437294 -1.1881014 -0.54388046 1.5212279e-38
9.947319 -1.1853503 -0.49096689 1.5949844e-38
9.9506311 -1.1825764 -0.43803659 1.6410822e-38
9.9536657 -1.17978 -0.38509086 1.5765453e-38
9.9564247 -1.1769611 -0.33213112 1.2722997e-38
9.9063845 -1.1698813 -0.27706417 1.5765453e-38
9.9435997 -1.1698482 -0.22556929 1.5120083e-38
9.9455233 -1.1669672 -0.17266829 1.539667e-38
9.9296541 -1.1626663 -0.11933646 1.8070343e-38
9.9485426 -1.1611389 -0.06684339 1.2354214e-38
9.9496374 -1.1581917 -0.013922361 1.0418106e-38
9.9679785 -1.156605 0.038855329 1.0510302e-38
9.9860439 -1.1549861 0.091819108 1.1155671e-38
10.003834 -1.153335 0.14496754 1.0233715e-38
10.003821 -1.1502849 0.19817062 1.3829344e-38
10.038578 -1.1499358 0.25181252 1.1524454e-38
10.055531 -1.1481878 0.30550614 1.2262019e-38
10.019636 -1.1423552 0.35816592 1.3276171e-38
10.036029 -1.1405587 0.41194001 1.1247867e-38
10.03462 -1.13739 0.46530196 1.456691e-38
10.050447 -1.1355343 0.51933432 1.7056192e-38
10.048478 -1.1323175 0.57276791 1.3368366e-38
10.046228 -1.1290795 0.62618917 1.392154e-38
10.061204 -1.127138 0.68055177 1.244641e-38
10.058392 -1.1238523 0.73403579 1.1893236e-38
10.072792 -1.1218518 0.78864157 1.1340062e-38
10.086901 -1.1198192 0.84341258 9.219563e-39
10.083238 -1.1164593 0.89702529 1.4013736e-38
10.096768 -1.1143677 0.95203024 1.3368366e-38
10.110003 -1.1122438 1.0071957 9.0351717e-39
10.105483 -1.1088102 1.0609235 1.1524454e-38
10.100682 -1.105356 1.1146256 1.1985432e-38
10.113043 -1.1031469 1.1700798 1.097128e-38
10.107672 -1.099646 1.2238176 1.2262019e-38
10.102019 -1.0961246 1.2775251 8.7585848e-39
10.165738 -1.0975739 1.339415 1.0049324e-38
10.124678 -1.0915048 1.3891332 8.8507805e-39
10.135552 -1.0891465 1.4451596 1.1155671e-38
10.128742 -1.0855266 1.4990051 9.5883455e-39
10.156388 -1.0843333 1.557649 8.5741936e-39
10.166347 -1.0818783 1.6141086 9.1273674e-39
10.175997 -1.0793911 1.6707091 8.9429761e-39
10.168008 -1.0756671 1.7247584 1.1155671e-38
10.194368 -1.0743201 1.7843267 1.1432258e-38
10.203087 -1.0717361 1.8413403 1.097128e-38
10.176921 -1.0667487 1.8925623 1.2262019e-38
10.185042 -1.0641131 1.9496614 8.5741936e-39
10.175596 -1.0602727 2.0037477 1.0418106e-38
10.200344 -1.0587456 2.0642507 1.0418106e-38
10.190298 -1.0548538 2.118413 1.097128e-38
10.17997 -1.0509429 2.1725204 9.0351717e-39
10.255293 -1.0527469 2.2440956 8.2976067e-39
10.192801 -1.0453446 2.2877548 8.3898023e-39
10.198736 -1.0424975 2.3455539 9.4961499e-39
10.20435 -1.0396184 2.4034717 8.6663892e-39
10.192532 -1.035587 2.4576423 9.6805411e-39
10.219255 -1.0307891 2.5779195 8.2976067e-39
9.8171892 -1.217883 -2.3058035 9.8649324e-39
9.5358543 -1.1799713 -1.969643 8.8507805e-39
9.4954376 -1.1738559 -1.9080005 8.2976067e-39
9.42558 -1.1548139 -1.6324102 1.0233715e-38
9.4348192 -1.1529895 -1.5822042 1.1247867e-38
9.4092693 -1.148259 -1.5259839 9.6805411e-39
9.4179506 -1.1463974 -1.4758669 1.0879084e-38
9.4090776 -1.1430787 -1.4229038 1.1616649e-38
9.4172211 -1.1411771 -1.3727914 1.3737149e-38
9.4597483 -1.1421103 -1.3278795 1.1432258e-38
9.4327211 -1.1373086 -1.2724447 1.1708845e-38
9.4400787 -1.1353421 -1.2222134 1.2538606e-38
9.4645357 -1.1347717 -1.1742928 1.1708845e-38
9.5061302 -1.1355866 -1.1284112 1.3276171e-38
9.5648956 -1.1377759 -1.0842961 1.1524454e-38
9.57127 -1.1357013 -1.0333778 1.2815193e-38
9.6644258 -1.1406196 -0.99234241 1.2538606e-38
9.6877394 -1.1398822 -0.94279683 1.2630801e-38
9.7805243 -1.1446966 -0.90023983 1.3183975e-38
9.7859373 -1.1424937 -0.84819686 1.1893236e-38
9.8957691 -1.148594 -0.8058303 1.2815193e-38
9.9006891 -1.1463242 -0.75318617 1.2907388e-38
9.9402637 -1.1467915 -0.70338613 1.539667e-38
9.9446497 -1.14447 -0.65051204 1.456691e-38
9.9487581 -1.1421268 -0.59761667 1.8162539e-38
9.952589 -1.1397618 -0.54470158 1.5581061e-38
9.9561453 -1.1373751 -0.49176809 1.6595213e-38
9.959424 -1.134967 -0.43881783 1.6595213e-38
9.9624252 -1.1325374 -0.3858521 1.8439126e-38
9.9476414 -1.1287355 -0.33208045 1.2815193e-38
9.915061 -1.1235749 -0.27777991 1.4382518e-38
9.9522524 -1.123778 -0.22626856 1.2169823e-38
9.9366236 -1.1199297 -0.17283118 1.8162539e-38
9.9382343 -1.1174023 -0.11999384 1.8531322e-38
9.9570942 -1.1161828 -0.06748233 1.1432258e-38
9.9581547 -1.113609 -0.014541133 1.244641e-38
10.011521 -1.1149738 0.037957754 1.1432258e-38
9.994503 -1.1110294 0.091237627 1.2815193e-38
9.9947338 -1.1083839 0.14436971 1.0418106e-38
9.9946871 -1.1057177 0.19750121 1.3829344e-38
10.046947 -1.106935 0.2512877 1.2354214e-38
10.028814 -1.1029166 0.30437857 1.4198127e-38
10.045458 -1.1014712 0.35808632 1.456691e-38
10.044294 -1.0987083 0.4114767 1.392154e-38
10.04285 -1.095925 0.46485922 1.2538606e-38
10.058647 -1.0943989 0.51891088 1.8623517e-38
10.056643 -1.0915699 0.57236511 1.1708845e-38
10.054358 -1.0887206 0.62580699 1.4105931e-38
10.069302 -1.087114 0.68018913 1.4198127e-38
10.066455 -1.0842193 0.73369384 1.1708845e-38
10.080824 -1.0825577 0.78831929 1.2999584e-38
10.129883 -1.0833617 0.84556836 9.4039542e-39
10.091202 -1.077901 0.8967436 1.1155671e-38
10.087222 -1.0749161 0.95035595 1.1801041e-38
10.100432 -1.0731442 1.0054498 1.0233715e-38
10.095885 -1.0701146 1.0591068 9.5883455e-39
10.10851 -1.0682876 1.1144257 1.1985432e-38
10.120838 -1.0664304 1.1699001 1.0510302e-38
10.115432 -1.0633315 1.2236588 1.244641e-38
10.162023 -1.0638324 1.2832717 9.4961499e-39
10.121189 -1.0582759 1.3331372 1.0879084e-38
10.143175 -1.0543119 1.4450831 8.6663892e-39
10.13633 -1.0510997 1.4989499 9.0351717e-39
10.198687 -1.0525863 1.5624487 1.0325911e-38
10.208586 -1.0504879 1.6191111 8.9429761e-39
10.16614 -1.0448538 1.6681161 9.5883455e-39
10.175459 -1.0427115 1.7247862 9.4039542e-39
10.201788 -1.0416965 1.784375 1.2538606e-38
10.210472 -1.0394884 1.8414096 1.1893236e-38
10.184265 -1.0349581 1.8926535 1.1801041e-38
10.17508 -1.0315607 1.9467207 8.7585848e-39
10.182869 -1.0292792 2.0038817 9.4039542e-39
10.207583 -1.0280966 2.0644057 1.1616649e-38
10.1975 -1.024626 2.1185894 1.1524454e-38
10.273169 -1.0267233 2.189791 8.2976067e-39
10.193673 -1.0187413 2.2302961 9.0351717e-39
10.199893 -1.0163152 2.2879961 1.0049324e-38
10.205793 -1.0138593 2.3458166 9.957128e-39
10.211372 -1.0113733 2.4037561 8.9429761e-39
10.199514 -1.0077696 2.4579487 9.4039542e-39
10.204468 -1.0052296 2.5160306 8.4819979e-39
10.226169 -1.0037353 2.5782695 8.4819979e-39
9.8284454 -1.1806828 -2.2928448 8.5741936e-39
9.5464783 -1.1446176 -1.9570116 8.7585848e-39
9.3992996 -1.1227945 -1.7168583 8.4819979e-39
9.3917379 -1.119781 -1.6635858 8.4819979e-39
9.4355946 -1.1209551 -1.6198701 1.0879084e-38
9.444747 -1.1193001 -1.5696424 1.097128e-38
9.4190941 -1.1148337 -1.5134472 1.0602497e-38
9.393117 -1.1103582 -1.4575696 1.1616649e-38
9.4014206 -1.1086519 -1.4075696 1.244641e-38
9.4267788 -1.1083102 -1.3602163 1.456691e-38
9.3999138 -1.1037937 -1.3048481 9.5883455e-39
9.4421053 -1.1047863 -1.2598301 1.2815193e-38
9.4493752 -1.102993 -1.2095796 1.1801041e-38
9.473752 -1.1025518 -1.1616168 1.2354214e-38
9.5152721 -1.1034526 -1.1156696 1.392154e-38
9.5739698 -1.1056852 -1.0714656 1.1708845e-38
9.5802555 -1.1037885 -1.0205294 1.1708845e-38
9.6559372 -1.1073081 -0.97739905 1.1247867e-38
9.6965828 -1.1080676 -0.92977172 1.2538606e-38
9.7893076 -1.112849 -0.88707924 1.3183975e-38
9.8469658 -1.1148765 -0.84007442 1.1985432e-38
9.9044046 -1.1168613 -0.792494 1.1247867e-38
9.9266949 -1.1161205 -0.74133551 1.2999584e-38
9.9312563 -1.1140131 -0.68855983 1.5212279e-38
9.9530191 -1.1132188 -0.63708049 1.6503018e-38
9.9395504 -1.1097351 -0.58294308 1.6134235e-38
9.9607754 -1.1088912 -0.53124011 1.6963996e-38
9.9642382 -1.106696 -0.47829223 1.751717e-38
9.9499207 -1.1031607 -0.42437634 1.7609365e-38
9.9703341 -1.1022427 -0.37234855 1.8715713e-38
9.9204283 -1.096051 -0.31705177 1.2999584e-38
9.9578047 -1.0963988 -0.26567429 1.7056192e-38
9.9598789 -1.0941036 -0.21275038 1.4843496e-38
9.9441538 -1.0904883 -0.15932493 1.8807908e-38
9.945673 -1.088156 -0.10647588 1.7609365e-38
9.9994993 -1.0896767 -0.054545838 1.0325911e-38
9.9654112 -1.0847172 -0.00097679859 1.0510302e-38
10.001163 -1.0848852 0.051729616 1.097128e-38
10.001579 -1.0824591 0.10487103 1.1155671e-38
10.019248 -1.081287 0.15807228 1.2722997e-38
10.001576 -1.0775459 0.21115395 1.3829344e-38
10.03622 -1.0775907 0.26477891 1.4474714e-38
10.035522 -1.0750751 0.3180975 1.4751301e-38
10.052073 -1.0737967 0.37183782 1.3276171e-38
10.050816 -1.0712367 0.4252362 1.4013736e-38
10.066801 -1.069905 0.47923717 1.3829344e-38
10.047462 -1.0660568 0.53200668 1.6134235e-38
10.062884 -1.0646766 0.58617049 1.4290323e-38
10.060505 -1.0620326 0.63961887 1.2630801e-38
10.075356 -1.0605992 0.6940313 1.1340062e-38
10.089916 -1.0591369 0.74861175 1.3737149e-38
10.086689 -1.0564247 0.80219674 1.3552758e-38
10.100673 -1.0549093 0.85701674 1.0049324e-38
10.096879 -1.0521536 0.91065484 1.4659105e-38
10.092804 -1.0493783 0.96427131 1.0602497e-38
10.10592 -1.0477856 1.0193932 1.2077628e-38
10.223514 -1.0533476 1.0843937 8.2054111e-39
10.113808 -1.0433214 1.1283997 1.1616649e-38
10.12604 -1.0416468 1.1839012 1.0786889e-38
10.120538 -1.0387609 1.2376622 1.3368366e-38
10.132179 -1.0370334 1.2933784 1.0418106e-38
10.126104 -1.0341045 1.347168 1.0325911e-38
10.137153 -1.0323242 1.4030925 1.0694693e-38
10.147898 -1.030515 1.4591645 1.2722997e-38
10.140956 -1.0275192 1.5130314 1.1340062e-38
10.203212 -1.0291146 1.5766276 1.1063476e-38
10.160942 -1.0237663 1.6257151 9.957128e-39
10.170474 -1.0218464 1.6822691 1.0233715e-38
10.214355 -1.0221715 1.7443914 9.219563e-39
10.188607 -1.0179197 1.7957925 1.0879084e-38
10.197207 -1.0159129 1.8527586 1.2354214e-38
10.188209 -1.0127559 1.9068718 1.2354214e-38
10.213468 -1.0118123 1.9670908 1.0233715e-38
10.221125 -1.0097185 2.0244536 9.5883455e-39
10.193992 -1.0053855 2.0754287 1.2077628e-38
10.201049 -1.0032445 2.1328666 1.0049324e-38
10.207789 -1.0010747 2.1904299 8.3898023e-39
10.197025 -0.997787 2.2445879 9.7727368e-39
10.203145 -0.9955647 2.3023069 9.8649324e-39
10.208944 -0.99331349 2.360146 9.8649324e-39
10.214422 -0.99103343 2.4181037 9.4039542e-39
10.202468 -0.98765779 2.4722893 9.219563e-39
10.207319 -0.98532552 2.5303886 1.0418106e-38
9.4026327 -1.1137923 -1.7141064 9.4961499e-39
9.394989 -1.1109834 -1.6608344 8.7585848e-39
9.4387798 -1.112308 -1.6170573 8.8507805e-39
9.3788176 -1.1053181 -1.5546885 9.7727368e-39
9.3702908 -1.1024621 -1.5018178 1.1247867e-38
9.3960552 -1.1023409 -1.4547821 1.1432258e-38
9.4042826 -1.1008213 -1.4047636 1.3552758e-38
9.4295692 -1.1006503 -1.357371 1.3460562e-38
9.4199524 -1.0977196 -1.3046031 1.1432258e-38
9.4447432 -1.0975016 -1.2569493 1.2999584e-38
9.486659 -1.0986183 -1.2114704 1.1893236e-38
9.4936142 -1.0969864 -1.1609839 1.4198127e-38
9.5003061 -1.0953341 -1.1104624 1.3368366e-38
9.5415287 -1.0963651 -1.0641491 1.097128e-38
9.5651236 -1.0960144 -1.0154088 1.0602497e-38
9.6581497 -1.1010205 -0.97420758 1.0879084e-38
9.7335825 -1.1046319 -0.93021572 1.3368366e-38
9.7739468 -1.1055181 -0.88195312 1.2722997e-38
9.9013176 -1.1130527 -0.84161597 1.1708845e-38
9.9063416 -1.1111891 -0.78896552 1.2722997e-38
9.9285555 -1.1106343 -0.73777103 1.1524454e-38
9.9505081 -1.110052 -0.6863699 1.3644953e-38
9.9547215 -1.1081189 -0.63346618 1.456691e-38
9.9586573 -1.1061648 -0.58054191 1.4474714e-38
9.9448223 -1.1028734 -0.52648479 1.9268887e-38
9.9481983 -1.1008811 -0.47361568 1.7056192e-38
9.9512987 -1.098868 -0.42073035 1.6687409e-38
9.971633 -1.0981402 -0.36866874 1.604204e-38
9.974184 -1.0960822 -0.31566361 1.4935692e-38
9.9589415 -1.092705 -0.26199213 1.6318626e-38
9.9609346 -1.0906096 -0.20905682 1.6226431e-38
9.9451275 -1.0872022 -0.15564184 1.8439126e-38
9.9465666 -1.0850697 -0.10278211 1.6226431e-38
9.9477282 -1.0829167 -0.049916394 1.1801041e-38
10.001204 -1.0845842 0.0023690043 1.2354214e-38
10.001817 -1.0823795 0.055518165 1.1985432e-38
10.019684 -1.081427 0.10865793 9.7727368e-39
10.019741 -1.0791781 0.16190085 1.1708845e-38
10.001987 -1.0756441 0.21496961 1.4290323e-38
10.054081 -1.0771412 0.26891103 1.4751301e-38
10.018242 -1.0723104 0.32161608 1.1708845e-38
10.05224 -1.0724868 0.37574252 1.0879084e-38
10.050901 -1.0701295 0.42914826 1.6687409e-38
10.049283 -1.0677525 0.48254538 1.6226431e-38
10.047385 -1.0653555 0.53593242 1.4843496e-38
10.062725 -1.0641752 0.59012425 1.2722997e-38
10.077777 -1.0629668 0.64448678 1.3091779e-38
10.075033 -1.0605023 0.69801843 1.3091779e-38
10.089511 -1.0592419 0.75262588 9.8649324e-39
10.086202 -1.056734 0.80621594 1.4382518e-38
10.100102 -1.0554216 0.86106223 1.2722997e-38
10.096227 -1.0528704 0.91470462 1.5857648e-38
10.092071 -1.0502996 0.96832508 1.3552758e-38
10.105103 -1.0489115 1.0234723 9.8649324e-39
10.100378 -1.0462978 1.077136 8.7585848e-39
10.112824 -1.0448576 1.1325067 1.0694693e-38
10.124972 -1.0433893 1.1880325 9.5883455e-39
10.119389 -1.040709 1.2417957 1.2538606e-38
10.130945 -1.0391887 1.2975355 9.219563e-39
10.142201 -1.0376402 1.3534255 8.3898023e-39
10.135752 -1.0348935 1.4072741 1.2630801e-38
10.146412 -1.0332931 1.4633687 1.2907388e-38
10.139388 -1.030504 1.517236 9.7727368e-39
10.184181 -1.0311632 1.5784559 9.957128e-39
10.159203 -1.0271713 1.6299632 1.0141519e-38
10.168649 -1.0254624 1.6865383 8.8507805e-39
10.177784 -1.0237253 1.7432522 9.8649324e-39
10.221233 -1.0242326 1.8057575 1.097128e-38
10.195123 -1.0201659 1.8570892 1.2262019e-38
10.186042 -1.0172172 1.9112003 1.2538606e-38
10.193943 -1.0153714 1.9683614 1.1524454e-38
10.20153 -1.0134975 2.0256526 1.0418106e-38
10.191567 -1.0104836 2.0797925 1.0602497e-38
10.215755 -1.0096644 2.140619 8.7585848e-39
10.205191 -1.0066038 2.1948299 9.8649324e-39
10.194345 -1.0035251 2.2489839 1.0049324e-38
10.200376 -1.0015196 2.3067198 1.0602497e-38
10.206087 -0.99948561 2.3645756 9.5883455e-39
10.211477 -0.99742329 2.4225497 8.4819979e-39
10.216544 -0.99533266 2.4806399 9.219563e-39
10.204203 -0.99214345 2.5348446 1.0049324e-38
9.4509888 -1.0867172 -1.8586535 8.2976067e-39
9.4026642 -1.0789491 -1.7445352 8.4819979e-39
9.4124346 -1.0777279 -1.6945055 9.957128e-39
9.3794413 -1.0712174 -1.5849921 1.0233715e-38
9.3883781 -1.0699421 -1.5350887 1.0694693e-38
9.3797722 -1.0673157 -1.4822191 1.2538606e-38
9.4054699 -1.0673312 -1.4351469 1.2630801e-38
9.4136238 -1.0659956 -1.3851111 1.3460562e-38
9.3868628 -1.0619925 -1.3297372 1.244641e-38
9.3944654 -1.0606219 -1.2798021 1.1801041e-38
9.4191608 -1.0605501 -1.2322948 1.244641e-38
9.4436226 -1.0604533 -1.1845683 1.3183975e-38
9.4852257 -1.061645 -1.1389078 1.4382518e-38
9.4918308 -1.0601845 -1.088462 1.2354214e-38
9.5155764 -1.0600123 -1.0400846 9.5883455e-39
9.5739079 -1.0624261 -0.9955132 1.0325911e-38
9.6494608 -1.0661061 -0.95228207 1.2815193e-38
9.7248287 -1.069744 -0.90828991 1.4382518e-38
9.8000059 -1.0733393 -0.86353767 1.3644953e-38
9.8400784 -1.0743032 -0.81473732 1.1801041e-38
9.9148369 -1.077818 -0.76865059 1.2722997e-38
9.919507 -1.0761353 -0.71596169 1.1524454e-38
9.9413795 -1.0757178 -0.66461933 1.3460562e-38
9.9629917 -1.0752741 -0.61307192 1.3368366e-38
9.949357 -1.072245 -0.55894864 1.3091779e-38
9.9529324 -1.0704782 -0.5060845 1.7793757e-38
9.9562292 -1.0686914 -0.45320308 1.7885952e-38
9.9592514 -1.0668843 -0.40030578 1.7056192e-38
9.961997 -1.0650573 -0.34739414 1.8623517e-38
9.9819832 -1.0644741 -0.29519644 1.604204e-38
9.9491358 -1.0600827 -0.24089848 1.68718e-38
9.9510479 -1.0581989 -0.18804429 1.9268887e-38
9.9526844 -1.0562955 -0.13518159 1.8623517e-38
9.9540443 -1.0543723 -0.082311735 1.5949844e-38
9.9551268 -1.0524293 -0.029436221 1.2077628e-38
10.008533 -1.0541983 0.022917598 1.2630801e-38
10.009067 -1.0522057 0.076075986 1.2999584e-38
10.009322 -1.0501934 0.1292357 1.4105931e-38
10.0093 -1.0481616 0.18239528 1.6226431e-38
10.008999 -1.0461103 0.23555325 1.5120083e-38
10.043487 -1.046492 0.28927729 1.5488866e-38
10.042627 -1.0443944 0.34261161 1.097128e-38
10.05902 -1.0434965 0.39640841 1.1893236e-38
10.057601 -1.0413564 0.44982123 1.6503018e-38
10.055902 -1.0391971 0.50322509 1.5212279e-38
10.053926 -1.0370184 0.55661863 1.3737149e-38
10.069186 -1.0360246 0.61083639 1.0602497e-38
10.066646 -1.0338036 0.66429657 1.3183975e-38
10.063828 -1.0315635 0.71774197 1.4935692e-38
10.095734 -1.0316894 0.77339423 1.2907388e-38
10.092344 -1.0294034 0.82698911 1.2354214e-38
10.106165 -1.028283 0.88185984 1.1893236e-38
10.102209 -1.0259551 0.93550652 1.5488866e-38
10.097972 -1.0236081 0.98913091 1.2354214e-38
10.128392 -1.0235876 1.0458717 1.1063476e-38
10.106118 -1.0200263 1.0979687 1.1340062e-38
10.118484 -1.0187832 1.1533623 9.1273674e-39
10.130551 -1.0175133 1.2089106 9.957128e-39
10.124886 -1.0150601 1.2626761 1.1985432e-38
10.136361 -1.0137402 1.3184379 9.6805411e-39
10.130123 -1.0112456 1.3722308 1.1893236e-38
10.141005 -1.0098759 1.4281995 1.0602497e-38
10.144477 -1.0059205 1.5381832 9.8649324e-39
10.154456 -1.0044739 1.5944961 8.3898023e-39
10.164127 -1.0030003 1.6509507 8.6663892e-39
10.17349 -1.0014994 1.7075455 1.097128e-38
10.182542 -0.99997151 1.7642788 1.1524454e-38
10.225904 -1.0006417 1.8268429 1.0786889e-38
10.199714 -0.9968341 1.8781536 1.2815193e-38
10.19055 -0.99412102 1.9322631 1.2538606e-38
10.198367 -0.99248886 1.9894422 1.1801041e-38
10.20587 -0.99082953 2.0467513 9.8649324e-39
10.192083 -0.98352736 2.2124794 9.1273674e-39
10.19835 -0.98176855 2.2701101 8.5741936e-39
10.204297 -0.9799825 2.3278623 1.0694693e-38
10.209923 -0.97816932 2.3857338 1.1893236e-38
10.207785 -0.97151464 2.5560281 8.7585848e-39
9.4481964 -1.0567663 -1.9075661 8.9429761e-39
9.4588032 -1.0557371 -1.8573261 8.5741936e-39
9.3857222 -1.0447364 -1.6866083 9.0351717e-39
9.3779354 -1.0423424 -1.6335126 9.5883455e-39
9.3871107 -1.0412278 -1.5836484 1.0786889e-38
9.3960238 -1.0400937 -1.5337374 1.0879084e-38
9.3873901 -1.0376493 -1.4808636 1.1985432e-38
9.3957653 -1.0364782 -1.4309537 1.1801041e-38
9.3865652 -1.0340012 -1.3782654 1.2907388e-38
9.3770752 -1.0315093 -1.3257177 1.2907388e-38
9.3846397 -1.0302845 -1.2758662 1.1524454e-38
9.4266596 -1.0315998 -1.2309021 1.244641e-38
9.4684696 -1.0328867 -1.1855367 1.2262019e-38
9.4753027 -1.0315949 -1.1352094 1.392154e-38
9.4818716 -1.0302838 -1.0848476 1.3091779e-38
9.5229902 -1.0314939 -1.0386491 1.0879084e-38
9.6161404 -1.0364785 -0.9980737 8.8507805e-39
9.656848 -1.037623 -0.95080769 1.2169823e-38
9.7147665 -1.040001 -0.90497029 1.4290323e-38
9.7899199 -1.0436045 -0.86028838 1.3091779e-38
9.8823328 -1.0484256 -0.81648803 1.1801041e-38
9.9221649 -1.0494356 -0.76709813 1.1432258e-38
9.9268103 -1.0479103 -0.7144022 9.957128e-39
9.9486599 -1.0476152 -0.66304922 1.0418106e-38
9.9702482 -1.047295 -0.61149126 1.0786889e-38
9.9565849 -1.0444608 -0.55736464 1.3276171e-38
9.9601336 -1.0428542 -0.50449359 1.5581061e-38
9.9634056 -1.0412278 -0.45160541 1.5120083e-38
9.9664011 -1.039582 -0.39870137 1.8254735e-38
9.969121 -1.0379167 -0.34578305 1.9268887e-38
9.9715633 -1.0362319 -0.29285184 1.7609365e-38
9.9562054 -1.0333005 -0.23927788 1.6226431e-38
9.9580908 -1.0315799 -0.18641721 1.6779605e-38
9.9421721 -1.0286191 -0.13310055 1.6134235e-38
9.9435015 -1.0268629 -0.080316298 1.2630801e-38
10.014693 -1.029947 -0.028580585 9.4039542e-39
10.015478 -1.0281401 0.024581328 9.219563e-39
10.015985 -1.0263139 0.077745952 9.3117586e-39
10.016214 -1.0244688 0.13091186 1.2354214e-38
10.016165 -1.0226043 0.18407755 1.6687409e-38
10.015838 -1.020721 0.23724158 1.5120083e-38
10.067838 -1.0224054 0.29126751 1.4013736e-38
10.049417 -1.0192817 0.34431946 1.5765453e-38
10.065784 -1.0185237 0.39812598 1.1616649e-38
10.046809 -1.0153689 0.45098045 1.4474714e-38
10.062613 -1.0145663 0.50495434 1.0141519e-38
10.060609 -1.0125593 0.55835354 1.4198127e-38
10.058326 -1.0105336 0.61174089 1.1432258e-38
10.073277 -1.0096607 0.66604662 1.456691e-38
10.070432 -1.0075941 0.71949756 1.3737149e-38
10.08481 -1.0066733 0.77404761 1.2722997e-38
10.098898 -1.0057267 0.82876343 1.3276171e-38
10.095201 -1.003597 0.88234454 1.097128e-38
10.091224 -1.0014488 0.93590474 1.4013736e-38
10.104445 -1.0004319 0.99092507 1.2815193e-38
10.099901 -0.99824303 1.044531 1.0141519e-38
10.13 -0.99832052 1.1014428 1.0602497e-38
10.107425 -0.9949488 1.1534227 8.8507805e-39
10.119474 -0.99383587 1.2088885 9.957128e-39
10.142674 -0.99153203 1.3202783 1.0694693e-38
10.147264 -0.98800504 1.4300536 1.1893236e-38
10.140425 -0.98565096 1.4838725 1.2354214e-38
10.212731 -0.98642361 1.6038347 9.219563e-39
10.187631 -0.98289216 1.655414 8.3898023e-39
10.179613 -0.98044986 1.7094387 1.0510302e-38
10.223289 -0.98127359 1.7717011 9.0351717e-39
10.197353 -0.97769254 1.8230586 1.1155671e-38
10.205755 -0.97627461 1.880072 9.5883455e-39
10.334808 -0.98240483 1.9584465 1.1155671e-38
10.204353 -0.97228229 1.9913732 1.0879084e-38
10.19458 -0.96971643 2.0454769 1.0049324e-38
10.191399 -0.96559685 2.156919 8.6663892e-39
10.283939 -0.96933675 2.2318571 8.5741936e-39
10.221374 -0.96350193 2.2756481 8.3898023e-39
10.227274 -0.96188265 2.3334982 8.2976067e-39
10.215713 -0.95919001 2.387713 9.8649324e-39
9.458353 -1.0125415 -1.888272 1.0233715e-38
9.4103737 -1.0061834 -1.773921 8.7585848e-39
9.4030933 -1.0042233 -1.7205604 8.2976067e-39
9.3782873 -1.0010087 -1.664067 9.5883455e-39
9.3876429 -1.0002551 -1.6142299 1.0786889e-38
9.3794775 -0.99824709 -1.5612633 1.0510302e-38
9.3710184 -0.99622321 -1.5084317 1.3091779e-38
9.3968544 -0.99664927 -1.4615364 1.1893236e-38
9.4051514 -0.99582249 -1.4116066 1.2907388e-38
9.3785419 -0.99251759 -1.3561975 1.456691e-38
9.3862886 -0.9916569 -1.3063661 1.4935692e-38
9.393775 -0.99077767 -1.2564954 1.3091779e-38
9.435729 -0.99232996 -1.2114774 9.6805411e-39
9.4774723 -0.9938572 -1.1660581 1.2722997e-38
9.4842262 -0.99291605 -1.1157122 1.2722997e-38
9.490715 -0.99195629 -1.0653322 1.4382518e-38
9.5317659 -0.99341428 -1.0190803 1.1155671e-38
9.5725956 -0.99484664 -0.97243124 1.0879084e-38
9.6829348 -1.0011109 -0.93297684 1.1985432e-38
9.7233553 -1.002484 -0.885171 1.4935692e-38
9.7984476 -1.0062521 -0.84040046 1.4013736e-38
9.8908033 -1.0111946 -0.79649371 1.2538606e-38
9.9130936 -1.0112716 -0.7455197 1.3552758e-38
9.9176464 -1.0101209 -0.69289863 1.1340062e-38
9.9394093 -1.0101539 -0.64160287 1.1063476e-38
9.9609118 -1.0101639 -0.59010249 1.4843496e-38
9.9646511 -1.0089521 -0.53723413 1.7056192e-38
9.9506121 -1.0065252 -0.48327485 1.456691e-38
9.9713039 -1.006472 -0.43144387 1.3644953e-38
9.9742155 -1.0052036 -0.37852475 1.9453278e-38
9.9768505 -1.0039164 -0.32559159 1.7701561e-38
9.979208 -1.0026104 -0.27264583 1.6503018e-38
9.9637623 -1.0001004 -0.2190758 1.4474714e-38
9.9655638 -0.99875927 -0.16620119 1.68718e-38
9.9495564 -0.99621904 -0.1128891 1.7240583e-38
9.9508018 -0.99484301 -0.06009151 1.4382518e-38
9.9693098 -0.99462414 -0.0075338935 1.1340062e-38
10.005504 -0.99411625 0.098143503 1.097128e-38
10.023187 -0.99382693 0.15126036 1.3460562e-38
10.023052 -0.99234837 0.20443803 1.4474714e-38
10.02264 -0.9908514 0.25761375 1.392154e-38
10.039487 -0.9904964 0.31109279 1.3552758e-38
10.056052 -0.99011767 0.36475095 1.5027888e-38
10.054803 -0.9885602 0.41809604 1.4105931e-38
10.053273 -0.98698425 0.47143334 1.5857648e-38
10.068993 -0.98653966 0.52543592 1.2907388e-38
10.066903 -0.98492438 0.57884514 1.3276171e-38
10.082054 -0.9844349 0.63310063 1.4105931e-38
10.079401 -0.98278022 0.68657583 1.4105931e-38
10.093979 -0.98224574 0.74107808 1.1524454e-38
10.073257 -0.97941637 0.79347932 1.1524454e-38
10.087265 -0.97883976 0.84813046 1.4290323e-38
10.100981 -0.97823918 0.90294558 1.1985432e-38
10.096917 -0.97648793 0.95651376 1.5765453e-38
10.110052 -0.97584218 1.0115603 1.2630801e-38
10.105422 -0.97405189 1.0651736 1.1340062e-38
10.117972 -0.97336102 1.1204455 1.1432258e-38
10.112772 -0.97153169 1.1740978 1.1340062e-38
10.124735 -0.97079557 1.2295889 9.957128e-39
10.136398 -0.97003525 1.2852328 1.0510302e-38
10.130337 -0.96814591 1.3389779 1.2630801e-38
10.141407 -0.96734029 1.3948314 1.1340062e-38
10.152174 -0.9665103 1.450833 1.1063476e-38
10.145247 -0.96456122 1.5046569 1.1524454e-38
10.165279 -0.96278614 1.6172031 9.219563e-39
10.192185 -0.96294671 1.6762865 8.5741936e-39
10.18408 -0.96091342 1.7303151 9.5883455e-39
10.175693 -0.95886242 1.7842999 9.7727368e-39
10.201641 -0.95894277 1.8439792 1.1432258e-38
10.209953 -0.95792061 1.9010143 9.957128e-39
10.3389 -0.96434534 1.9795413 1.3368366e-38
10.191111 -0.95367497 2.0091975 9.7727368e-39
10.198511 -0.95258617 2.0664451 1.1985432e-38
10.188367 -0.95041621 2.1204977 8.5741936e-39
10.19515 -0.94928181 2.1779089 1.0694693e-38
10.287584 -0.9533689 2.2529607 9.1273674e-39
10.276465 -0.95112121 2.3074763 9.8649324e-39
10.213592 -0.94573087 2.3508821 9.1273674e-39
10.201962 -0.94345987 2.4050074 1.0141519e-38
10.190047 -0.94117165 2.4590702 8.9429761e-39
10.212045 -0.94092715 2.5209749 8.7585848e-39
10.199525 -0.93859714 2.575088 1.0233715e-38
9.3610592 -0.99977022 -1.6608046 8.5741936e-39
9.3703985 -0.99901795 -1.6110579 9.1273674e-39
9.3794775 -0.99824709 -1.5612633 1.1247867e-38
9.3710184 -0.99622321 -1.5084317 1.0418106e-38
9.3968544 -0.99664927 -1.4615364 1.1616649e-38
9.4051514 -0.99582249 -1.4116066 1.3183975e-38
9.3785419 -0.99251759 -1.3561975 1.3276171e-38
9.3862886 -0.9916569 -1.3063661 1.3829344e-38
9.393775 -0.99077767 -1.2564954 1.2354214e-38
9.435729 -0.99232996 -1.2114774 1.097128e-38
9.4774723 -0.9938572 -1.1660581 1.1524454e-38
9.4842262 -0.99291605 -1.1157122 1.392154e-38
9.490715 -0.99195629 -1.0653322 1.3552758e-38
9.5317659 -0.99341428 -1.0190803 1.0510302e-38
9.6074419 -0.99727923 -0.97640932 1.0694693e-38
9.6306353 -0.99746764 -0.92728382 1.0602497e-38
9.7233553 -1.002484 -0.885171 1.4474714e-38
9.7635431 -1.0038307 -0.83697116 1.3091779e-38
9.8908033 -1.0111946 -0.79649371 1.1708845e-38
9.9130936 -1.0112716 -0.7455197 1.1893236e-38
9.9351234 -1.0113256 -0.69433832 1.1801041e-38
9.9394093 -1.0101539 -0.64160287 1.1155671e-38
9.9609118 -1.0101639 -0.59010249 1.4105931e-38
9.9646511 -1.0089521 -0.53723413 1.751717e-38
9.9506121 -1.0065252 -0.48327485 1.7793757e-38
9.9537945 -1.0052778 -0.43046305 1.68718e-38
9.9567003 -1.0040116 -0.37763584 1.8807908e-38
9.9768505 -1.0039164 -0.32559159 1.6779605e-38
9.9616852 -1.0014229 -0.27194074 1.5212279e-38
9.9462357 -0.99891526 -0.21846257 1.3276171e-38
9.9655638 -0.99875927 -0.16620119 1.4105931e-38
9.9495564 -0.99621904 -0.1128891 1.8070343e-38
9.9508018 -0.99484301 -0.06009151 1.3644953e-38
9.9517727 -0.99344844 -0.0072886045 1.1247867e-38
10.005504 -0.99411625 0.098143503 9.6805411e-39
10.005647 -0.99265867 0.15122963 1.0325911e-38
10.005513 -0.99118274 0.20431532 1.2722997e-38
10.02264 -0.9908514 0.25761375 1.3552758e-38
10.057024 -0.99165684 0.31139952 1.5212279e-38
10.056052 -0.99011767 0.36475095 1.2815193e-38
10.054803 -0.9885602 0.41809604 1.456691e-38
10.053273 -0.98698425 0.47143334 1.4659105e-38
10.068993 -0.98653966 0.52543592 1.2262019e-38
10.066903 -0.98492438 0.57884514 1.4105931e-38
10.064534 -0.98329085 0.6322422 1.4105931e-38
10.061886 -0.98163903 0.68562555 1.3552758e-38
10.076468 -0.98110741 0.74003589 1.2262019e-38
10.073257 -0.97941637 0.79347932 1.1340062e-38
10.087265 -0.97883976 0.84813046 1.4382518e-38
10.100981 -0.97823918 0.90294558 1.3276171e-38
10.096917 -0.97648793 0.95651376 1.4474714e-38
10.092575 -0.97471869 1.0100594 1.3091779e-38
10.122891 -0.97517234 1.0667663 1.0510302e-38
10.117972 -0.97336102 1.1204455 1.1801041e-38
10.112772 -0.97153169 1.1740978 1.1063476e-38
10.124735 -0.97079557 1.2295889 1.097128e-38
10.136398 -0.97003525 1.2852328 9.219563e-39
10.130337 -0.96814591 1.3389779 1.1524454e-38
10.123995 -0.96623886 1.3926899 1.1432258e-38
10.204377 -0.96980482 1.4575312 8.4819979e-39
10.145247 -0.96456122 1.5046569 9.4039542e-39
10.13804 -0.96259433 1.5584433 9.219563e-39
10.174834 -0.96186197 1.6736891 9.3117586e-39
10.18408 -0.96091342 1.7303151 9.4039542e-39
10.227663 -0.9620961 1.7926372 8.7585848e-39
10.21895 -0.96001714 1.8468492 1.0325911e-38
10.175365 -0.95577878 1.895093 9.957128e-39
10.3389 -0.96434534 1.9795413 1.1432258e-38
10.329208 -0.9621852 2.0343323 9.4961499e-39
10.319232 -0.96000749 2.0890713 1.0141519e-38
10.205596 -0.95147282 2.1238203 9.6805411e-39
10.19515 -0.94928181 2.1779089 9.957128e-39
10.201618 -0.94812292 2.2354445 9.219563e-39
10.207766 -0.94693923 2.293103 1.0049324e-38
10.196436 -0.9446891 2.3471987 1.0325911e-38
10.201962 -0.94345987 2.4050074 1.0325911e-38
10.199525 -0.93859714 2.575088 8.6663892e-39
9.3825712 -1.0162195 -1.6160891 8.7585848e-39
9.3916054 -1.0157207 -1.566283 9.7727368e-39
9.4003801 -1.0152025 -1.5164305 1.2354214e-38
9.3916025 -1.0133743 -1.4636436 1.0694693e-38
9.3998404 -1.0128182 -1.4137934 1.456691e-38
9.4251375 -1.013531 -1.3666092 1.4843496e-38
9.432869 -1.0129349 -1.3165852 1.3276171e-38
9.4056425 -1.0097471 -1.2614697 1.456691e-38
9.447547 -1.0116847 -1.2164203 1.456691e-38
9.4544916 -1.0110303 -1.1662821 1.3644953e-38
9.4785624 -1.0116395 -1.118361 1.2077628e-38
9.5023937 -1.0122266 -1.0702235 1.456691e-38
9.5433931 -1.0140718 -1.0239403 1.0786889e-38
9.5841722 -1.0158924 -0.97726035 1.1524454e-38
9.6421576 -1.0189654 -0.93207139 1.244641e-38
9.6999359 -1.0220106 -0.88630474 1.3829344e-38
9.7400532 -1.023753 -0.83825719 1.3829344e-38
9.8323107 -1.0292891 -0.79465407 1.3276171e-38
9.9069147 -1.0335189 -0.7485888 1.2815193e-38
9.9288893 -1.0339067 -0.69747925 1.3460562e-38
9.9506025 -1.0342712 -0.64616382 1.2999584e-38
9.954567 -1.0333458 -0.59339839 1.4382518e-38
9.97575 -1.0336657 -0.541767 1.5581061e-38
9.961668 -1.031435 -0.48780999 1.7148387e-38
9.9648056 -1.0304499 -0.43498996 2.1020604e-38
9.9676657 -1.0294447 -0.38215461 2.0098647e-38
9.9702511 -1.0284196 -0.32930547 1.9176691e-38
9.972559 -1.0273747 -0.27644387 1.5673257e-38
9.9745922 -1.0263101 -0.22357138 1.6410822e-38
9.9588232 -1.023973 -0.17017896 1.982206e-38
9.9603004 -1.0228708 -0.11738094 1.6503018e-38
9.9615021 -1.0217488 -0.064576261 1.9084495e-38
9.9624271 -1.0206072 -0.01176649 1.5212279e-38
9.9455442 -1.0182012 0.041189343 1.0233715e-38
10.033587 -1.0232362 0.093661293 9.8649324e-39
10.016152 -1.0207869 0.14680421 1.2999584e-38
10.033507 -1.0207992 0.20002978 1.3644953e-38
10.033051 -1.019551 0.25321156 9.957128e-39
10.014784 -1.0170493 0.30607209 1.2815193e-38
10.066363 -1.0194602 0.36038232 1.4935692e-38
10.047541 -1.0169194 0.41323131 1.2907388e-38
10.04597 -1.0155909 0.46648201 1.5581061e-38
10.061643 -1.015468 0.52040887 1.5765453e-38
10.059512 -1.0140982 0.57373124 1.4843496e-38
10.074616 -1.0139294 0.62791061 1.5304475e-38
10.071924 -1.0125183 0.68129867 1.3737149e-38
10.086457 -1.0123034 0.73572457 1.539667e-38
10.065702 -1.0096381 0.78802735 1.3183975e-38
10.097159 -1.0105898 0.84383875 1.244641e-38
10.093338 -1.0090963 0.8973403 1.2630801e-38
10.106718 -1.0087887 0.95224094 1.5765453e-38
10.10233 -1.007254 1.0057902 1.4659105e-38
10.097664 -1.0057001 1.0593153 1.5304475e-38
10.127627 -1.0065213 1.1162053 1.1524454e-38
10.122384 -1.0049236 1.1698607 1.2815193e-38
10.11686 -1.0033066 1.2234875 1.0325911e-38
10.128483 -1.0028595 1.2790538 1.1893236e-38
10.122388 -1.0012014 1.33271 1.1985432e-38
10.16823 -1.0030742 1.3927909 1.0418106e-38
10.144147 -1.0001888 1.4444095 9.3117586e-39
10.137188 -0.99846786 1.4981443 1.1340062e-38
10.12995 -0.99672782 1.5518414 9.4961499e-39
10.139787 -0.99614036 1.6080167 1.0879084e-38
10.166663 -0.99669647 1.6669419 1.0233715e-38
10.175872 -0.99605602 1.7234892 1.1985432e-38
10.219404 -0.99771529 1.785755 1.1063476e-38
10.176059 -0.99354053 1.8341151 1.1340062e-38
10.18435 -0.99282777 1.8909806 1.2999584e-38
10.192329 -0.99208993 1.9479789 1.0879084e-38
10.18274 -0.99017709 2.0019555 1.1155671e-38
10.190107 -0.98939192 2.059124 1.1155671e-38
10.197158 -0.98858154 2.1164203 1.2630801e-38
10.186688 -0.98660582 2.1704183 9.957128e-39
10.193122 -0.98574805 2.2278748 1.0694693e-38
10.199239 -0.98486495 2.2854536 9.957128e-39
10.205034 -0.9839564 2.3431532 1.097128e-38
10.193379 -0.98189604 2.3971877 1.0602497e-38
10.198553 -0.98094004 2.455034 1.1063476e-38
10.20793 -0.97895157 2.5710716 9.3117586e-39
9.4352503 -1.0725421 -1.60796 9.4039542e-39
9.4615049 -1.0734434 -1.5609057 9.0351717e-39
9.4529829 -1.0715464 -1.5077268 1.1524454e-38
9.3923025 -1.0654701 -1.446111 1.0602497e-38
9.4004545 -1.0649238 -1.3962466 1.4382518e-38
9.4083462 -1.0643566 -1.3463407 1.3552758e-38
9.4333076 -1.065152 -1.2989795 1.3552758e-38
9.4406919 -1.0645419 -1.2489034 1.4198127e-38
9.447814 -1.0639112 -1.1987895 1.456691e-38
9.4720449 -1.0646396 -1.1509513 1.4198127e-38
9.4786558 -1.0639659 -1.1006751 1.1247867e-38
9.5197916 -1.0660268 -1.054624 1.1340062e-38
9.59552 -1.0708145 -1.012251 1.0510302e-38
9.6188211 -1.0714453 -0.96327639 1.4290323e-38
9.6418762 -1.0720525 -0.91408902 1.2354214e-38
9.7169914 -1.0767528 -0.86998075 1.3737149e-38
9.8093567 -1.0827912 -0.82678485 1.4751301e-38
9.8142729 -1.0819468 -0.77474535 1.3183975e-38
9.9062233 -1.0879203 -0.73012447 1.2722997e-38
9.9281044 -1.0883918 -0.67897552 1.1985432e-38
9.9497242 -1.0888386 -0.62762123 1.6779605e-38
9.9535999 -1.0878975 -0.57484943 1.5120083e-38
9.9746885 -1.0882964 -0.52318019 1.4843496e-38
9.9605236 -1.0859511 -0.46924993 1.68718e-38
9.9635715 -1.0849457 -0.41642508 2.0375234e-38
9.9663439 -1.0839189 -0.36358544 2.0744017e-38
9.9688396 -1.0828707 -0.31073248 1.8623517e-38
9.9710598 -1.0818012 -0.2578676 1.6687409e-38
9.920455 -1.0766587 -0.2032817 1.6134235e-38
9.9571533 -1.0782496 -0.15162976 1.7240583e-38
9.9585428 -1.0771182 -0.098829955 1.834693e-38
9.9421329 -1.074621 -0.045729779 1.7240583e-38
9.960494 -1.0747918 0.0067865201 1.6318626e-38
9.9610567 -1.0735968 0.059600249 1.2722997e-38
9.996398 -1.0750576 0.1123793 1.1063476e-38
9.9964085 -1.0738163 0.16537906 1.1524454e-38
10.013669 -1.0738878 0.21854348 1.3829344e-38
10.030651 -1.0739338 0.2718893 1.1801041e-38
10.029828 -1.0726248 0.32506523 1.3091779e-38
10.04625 -1.0726218 0.3786774 1.2999584e-38
10.04487 -1.0712683 0.43193278 1.751717e-38
10.043212 -1.0698938 0.48517966 1.7609365e-38
10.041275 -1.0684981 0.53841656 1.392154e-38
10.039061 -1.0670817 0.59164214 1.456691e-38
10.054075 -1.0669595 0.64575642 1.4843496e-38
10.068801 -1.0668113 0.7000401 1.456691e-38
10.065742 -1.065327 0.75340641 1.5857648e-38
10.079894 -1.0651294 0.80793256 1.4935692e-38
10.076272 -1.0636009 0.86135465 1.1616649e-38
10.089849 -1.0633538 0.91611707 1.1063476e-38
10.085661 -1.0617808 0.96958894 1.4659105e-38
10.098657 -1.061484 1.0245816 1.4659105e-38
10.093904 -1.0598669 1.0780972 1.4198127e-38
10.106317 -1.0595202 1.1333139 1.3091779e-38
10.100994 -1.0578588 1.1868671 1.097128e-38
10.124347 -1.0570394 1.2978883 1.3368366e-38
10.118165 -1.0553102 1.3515323 1.0879084e-38
10.16389 -1.0573907 1.4116962 1.2538606e-38
10.157114 -1.0556114 1.4655453 8.8507805e-39
10.150058 -1.0538114 1.5193577 9.8649324e-39
10.142721 -1.051991 1.5731317 1.2722997e-38
10.135102 -1.05015 1.626866 9.4961499e-39
10.161869 -1.0508112 1.6858394 1.0325911e-38
10.170981 -1.050181 1.7424026 1.1708845e-38
10.214393 -1.0520338 1.8047471 1.2907388e-38
10.205564 -1.0500917 1.8588524 1.3183975e-38
10.179179 -1.046881 1.9099066 1.3091779e-38
10.34239 -1.0573511 1.9947648 1.1063476e-38
10.194629 -1.0453849 2.024061 1.0602497e-38
10.184655 -1.043358 2.0780575 1.0418106e-38
10.191608 -1.0425456 2.1353657 1.1893236e-38
10.181054 -1.0404748 2.1893437 9.6805411e-39
10.18739 -1.0396116 2.2468107 1.0233715e-38
10.210563 -1.0399455 2.3080356 8.7585848e-39
10.199106 -1.0378036 2.3621092 1.3460562e-38
10.187367 -1.0356416 2.4161212 1.0141519e-38
10.192443 -1.0346731 2.4739759 9.3117586e-39
10.197194 -1.0336771 2.5319457 1.0325911e-38
10.201623 -1.0326539 2.5900288 9.8649324e-39
9.4931049 -1.1805314 -1.8595214 8.2976067e-39
9.4294996 -1.1690784 -1.6385148 8.3898023e-39
9.447566 -1.1679502 -1.5383426 1.0879084e-38
9.4216795 -1.1642025 -1.4823698 9.8649324e-39
9.4300289 -1.163581 -1.4323524 1.0325911e-38
9.4035301 -1.1597924 -1.3768376 1.3091779e-38
9.4113283 -1.1591259 -1.3269182 1.0879084e-38
9.4708319 -1.163143 -1.2845955 1.1708845e-38
9.4781494 -1.1624254 -1.2343251 1.2815193e-38
9.4852047 -1.1616839 -1.1840173 1.3368366e-38
9.5267172 -1.164049 -1.1382179 1.1432258e-38
9.550642 -1.1648209 -1.0898383 1.392154e-38
9.5743275 -1.1655662 -1.0412428 1.3644953e-38
9.6151628 -1.1678455 -0.99443102 1.2722997e-38
9.620966 -1.1669763 -0.94340974 1.3829344e-38
9.7135754 -1.173871 -0.90143502 1.3276171e-38
9.7188931 -1.1729461 -0.84989899 1.3460562e-38
9.8111067 -1.1797681 -0.80649656 1.4843496e-38
9.9031363 -1.1865488 -0.76215267 1.3276171e-38
9.9077263 -1.1855341 -0.70962441 1.0418106e-38
9.9295006 -1.1860441 -0.65843034 1.3737149e-38
9.9510136 -1.1865258 -0.60703152 1.7332778e-38
9.9547939 -1.1854343 -0.55425578 1.7056192e-38
9.9582996 -1.1843185 -0.50146151 1.604204e-38
9.9615297 -1.1831783 -0.44865021 1.6779605e-38
9.9644842 -1.1820139 -0.39582327 1.8715713e-38
9.9671621 -1.1808251 -0.3429822 1.6779605e-38
9.9520693 -1.1780772 -0.28941429 1.8900104e-38
9.9191923 -1.1737764 -0.2353968 1.6963996e-38
9.9210339 -1.1725217 -0.18279783 1.5488866e-38
9.957613 -1.1742998 -0.13106702 1.456691e-38
9.9414005 -1.1714664 -0.077922657 1.89923e-38
9.942421 -1.1701374 -0.025211049 1.7240583e-38
9.9606762 -1.170306 0.027342245 1.4198127e-38
9.9436359 -1.1674078 0.080222659 1.1985432e-38
9.9438295 -1.166007 0.1329419 1.2538606e-38
9.9962864 -1.1691251 0.186002 1.4198127e-38
9.9959288 -1.1676691 0.23899509 1.5027888e-38
9.9952946 -1.1661894 0.29198498 1.4935692e-38
9.9943838 -1.1646858 0.34497011 1.0418106e-38
10.028211 -1.1661661 0.39891252 1.1708845e-38
10.044247 -1.1661108 0.45264155 1.3829344e-38
10.042498 -1.1645277 0.5058797 1.7793757e-38
10.04047 -1.1629208 0.5591073 1.5304475e-38
10.055659 -1.1627831 0.61317241 1.2907388e-38
10.053074 -1.1611261 0.66646641 1.2907388e-38
10.067694 -1.1609323 0.72077864 1.5488866e-38
10.064545 -1.159225 0.77413309 1.5673257e-38
10.061117 -1.1574939 0.82746953 1.2722997e-38
10.07488 -1.1572174 0.88209528 1.244641e-38
10.088349 -1.1569113 0.93688369 1.2815193e-38
10.084073 -1.1551034 0.99034101 1.4013736e-38
10.096963 -1.1547408 1.0453582 1.2999584e-38
10.092121 -1.1528829 1.098858 1.2630801e-38
10.104428 -1.1524638 1.1540979 1.0694693e-38
10.099018 -1.1505556 1.2076341 1.3091779e-38
10.110739 -1.1500798 1.2630904 9.219563e-39
10.10476 -1.1481216 1.3166569 1.3091779e-38
10.168054 -1.1519364 1.3787211 1.0786889e-38
10.109342 -1.1455809 1.425914 1.244641e-38
10.119879 -1.1449915 1.4817843 1.097128e-38
10.122701 -1.142287 1.5914607 1.1340062e-38
10.166991 -1.1444736 1.6528469 9.0351717e-39
10.158978 -1.1423315 1.706699 1.097128e-38
10.167985 -1.1415905 1.7632778 1.3091779e-38
10.159396 -1.1393983 1.8171321 1.2907388e-38
10.167797 -1.1386 1.8738919 1.3460562e-38
10.193142 -1.1391842 1.9338274 1.1985432e-38
10.183663 -1.1369115 1.9878095 1.1155671e-38
10.191126 -1.1360213 2.0449641 1.244641e-38
10.170727 -1.1313533 2.1528473 9.219563e-39
10.194448 -1.1317722 2.213695 1.0233715e-38
10.200661 -1.1307626 2.2712615 9.7727368e-39
10.189422 -1.1283367 2.3252742 8.8507805e-39
10.195015 -1.1272693 2.3829913 1.1985432e-38
10.205237 -1.1250417 2.4987767 9.6805411e-39
10.19281 -1.1225123 2.5528076 1.0786889e-38
10.180102 -1.1199603 2.6067722 9.4961499e-39
9.4485378 -1.2013534 -1.519366 1.0325911e-38
9.4225616 -1.1973908 -1.4634496 8.9429761e-39
9.4042339 -1.1926699 -1.3579617 9.3117586e-39
9.4465599 -1.1951666 -1.3132321 1.1247867e-38
9.4713573 -1.1960045 -1.2655892 1.244641e-38
9.4785862 -1.1951878 -1.2153074 1.392154e-38
9.5375938 -1.199223 -1.1719723 1.1985432e-38
9.5269747 -1.1967285 -1.1191082 1.2262019e-38
9.5334377 -1.1958346 -1.0685381 1.2169823e-38
9.5744028 -1.1981578 -1.0220432 1.3091779e-38
9.6151466 -1.2004493 -0.9751516 1.2999584e-38
9.673069 -1.2043265 -0.92973548 1.3829344e-38
9.7133713 -1.2065529 -0.88196212 1.4382518e-38
9.7534428 -1.2087469 -0.83379501 1.3368366e-38
9.7932796 -1.2109085 -0.78523564 9.957128e-39
9.9026384 -1.2194769 -0.74230433 1.097128e-38
9.8896904 -1.2167416 -0.68835723 1.1893236e-38
9.9288158 -1.2188025 -0.63853568 1.5765453e-38
9.9502344 -1.2192262 -0.58709669 1.7978148e-38
9.9539223 -1.2180188 -0.5343169 1.7240583e-38
9.9573355 -1.2167861 -0.48151922 1.3829344e-38
9.9429941 -1.213931 -0.42775077 1.7701561e-38
9.9458504 -1.2126499 -0.37501341 1.604204e-38
9.8959656 -1.2065655 -0.31995112 1.6318626e-38
9.8982601 -1.2052414 -0.26746377 1.7793757e-38
9.917778 -1.2054807 -0.21555243 1.6503018e-38
9.9020281 -1.2025187 -0.16245878 1.5581061e-38
9.9385052 -1.2042867 -0.11074921 1.7332778e-38
9.9397078 -1.2028583 -0.058044098 1.834693e-38
9.9406366 -1.201405 -0.0053340802 1.7885952e-38
9.9587955 -1.2015027 0.047252651 1.3644953e-38
9.9416676 -1.1984243 0.10009477 1.2722997e-38
9.9417706 -1.1968968 0.15281075 1.3091779e-38
9.9941216 -1.2000479 0.20597373 1.3829344e-38
9.9936714 -1.1984627 0.25896242 1.4935692e-38
9.9929457 -1.196853 0.31194735 1.5212279e-38
10.009447 -1.1967779 0.36535224 1.2077628e-38
10.025668 -1.1966724 0.41893435 1.3091779e-38
10.024108 -1.194983 0.472083 1.2169823e-38
10.039765 -1.1948195 0.52592313 1.4935692e-38
10.037646 -1.1930777 0.57914293 1.4935692e-38
10.035251 -1.1913115 0.63235015 1.3460562e-38
10.05006 -1.1910622 0.68652016 1.5212279e-38
10.064582 -1.1907822 0.74085832 1.5212279e-38
10.043869 -1.1874009 0.79304218 1.2999584e-38
10.057823 -1.1870656 0.84752846 9.4961499e-39
10.071486 -1.1866994 0.90217841 1.4382518e-38
10.084858 -1.1863023 0.9569903 1.1893236e-38
10.08049 -1.184352 1.0104352 1.0325911e-38
10.075845 -1.1823776 1.0638559 1.2815193e-38
10.088348 -1.1818939 1.1189611 1.3552758e-38
10.100556 -1.1813792 1.1742221 1.1063476e-38
10.112466 -1.1808332 1.2296373 1.0418106e-38
10.106676 -1.1787512 1.2832199 8.4819979e-39
10.100606 -1.1766452 1.3367707 9.4039542e-39
10.146396 -1.1790072 1.3967912 1.3091779e-38
10.122365 -1.1753482 1.4482886 1.2538606e-38
10.132791 -1.1746525 1.5042673 9.1273674e-39
10.125568 -1.172439 1.5579493 1.2354214e-38
10.135397 -1.1716839 1.6141242 8.3898023e-39
10.127602 -1.1694187 1.6678168 1.0879084e-38
10.154135 -1.170079 1.7268957 1.1708845e-38
10.14575 -1.1677581 1.7806836 1.2907388e-38
10.171637 -1.1683471 1.8402181 1.1708845e-38
10.162661 -1.1659706 1.8940949 1.3091779e-38
10.17065 -1.1650289 1.9510005 1.3183975e-38
10.178325 -1.1640555 2.0080369 1.0694693e-38
10.168474 -1.1615994 2.0619445 1.1708845e-38
10.182284 -1.1595008 2.1764758 9.1273674e-39
10.183497 -1.1546826 2.3454897 8.9429761e-39
10.188989 -1.153493 2.4032142 9.8649324e-39
10.19416 -1.1522712 2.4610555 8.3898023e-39
10.199008 -1.151017 2.5190125 9.5883455e-39
10.203533 -1.1497306 2.5770826 9.957128e-39
10.190714 -1.1470045 2.6311069 8.2976067e-39
9.442729 -1.287513 -1.5490404 9.3117586e-39
9.485939 -1.2902104 -1.5047508 8.4819979e-39
9.4599285 -1.2856681 -1.4487264 8.7585848e-39
9.4854059 -1.2865043 -1.4012454 8.5741936e-39
9.4760818 -1.2837139 -1.3482407 8.7585848e-39
9.4837646 -1.282696 -1.2979368 1.2169823e-38
9.473875 -1.2798567 -1.245126 1.2907388e-38
9.4810209 -1.2787862 -1.1948371 1.2999584e-38
9.5399151 -1.2830592 -1.1513698 1.2262019e-38
9.5292244 -1.2801403 -1.098542 1.1432258e-38
9.5703259 -1.2825565 -1.0521735 1.2354214e-38
9.5764666 -1.2813692 -1.0013835 1.2815193e-38
9.6344872 -1.2854999 -0.95632476 1.1985432e-38
9.6749115 -1.2878106 -0.90885884 1.4659105e-38
9.7325096 -1.291862 -0.86273658 1.2722997e-38
9.7898951 -1.2958722 -0.81603819 1.3644953e-38
9.8470631 -1.2998406 -0.76876467 1.244641e-38
9.9040089 -1.303767 -0.72091734 1.1708845e-38
9.8909883 -1.3005804 -0.66701221 1.2538606e-38
9.930007 -1.3026662 -0.61710733 1.5673257e-38
9.9338799 -1.3011891 -0.56444001 1.6779605e-38
9.9025679 -1.2961645 -0.50956213 1.4382518e-38
9.9058809 -1.2946373 -0.45704249 1.3368366e-38
9.9438524 -1.2965916 -0.4063316 1.7148387e-38
9.8942127 -1.2897485 -0.35113698 1.834693e-38
9.8966999 -1.2881417 -0.29866636 1.7424974e-38
9.8989124 -1.2865074 -0.24618423 1.7424974e-38
9.9008512 -1.2848457 -0.19369221 1.7056192e-38
9.9025173 -1.2831569 -0.14119171 1.5488866e-38
9.9388857 -1.2849151 -0.089405529 1.6134235e-38
9.9400072 -1.2831656 -0.036708303 1.7056192e-38
9.940855 -1.2813889 0.015993169 1.6226431e-38
9.9239349 -1.2778571 0.068782203 1.2999584e-38
9.9942055 -1.282928 0.1214244 1.2262019e-38
9.9767351 -1.2793387 0.17430665 1.3829344e-38
9.9764824 -1.277447 0.22719453 1.2077628e-38
9.9934454 -1.277243 0.28036243 1.3368366e-38
9.9926405 -1.2752937 0.33333477 1.4382518e-38
9.9915581 -1.2733175 0.38630119 1.097128e-38
10.007687 -1.2730187 0.43981919 1.2538606e-38
10.023533 -1.272686 0.49351221 1.3368366e-38
10.039097 -1.2723193 0.54737878 1.2630801e-38
10.036899 -1.2702246 0.6005826 1.4105931e-38
10.034423 -1.268103 0.65377325 1.3737149e-38
10.049139 -1.2676412 0.70796758 1.6318626e-38
10.063566 -1.2671449 0.76232934 1.392154e-38
10.060247 -1.2649354 0.81565505 1.4290323e-38
10.05665 -1.2626991 0.86896157 1.1801041e-38
10.052777 -1.2604363 0.92224753 1.3644953e-38
10.083497 -1.261481 0.97846568 1.2169823e-38
10.079052 -1.2591571 1.0318892 1.2354214e-38
10.074328 -1.2568065 1.0852878 1.1340062e-38
10.086739 -1.2560843 1.1404117 1.4013736e-38
10.098852 -1.2553276 1.1956906 1.2999584e-38
10.093274 -1.2528893 1.2491881 1.1247867e-38
10.087417 -1.2504245 1.3026545 1.2169823e-38
10.150774 -1.2544868 1.3645587 1.1155671e-38
10.144317 -1.2519523 1.4183238 1.3368366e-38
10.102877 -1.2461319 1.467453 1.2262019e-38
10.130559 -1.246804 1.5257455 1.0141519e-38
10.105935 -1.2425696 1.5769168 1.2262019e-38
10.115683 -1.2415508 1.6330128 1.1432258e-38
10.125125 -1.2404968 1.689249 1.0694693e-38
10.151547 -1.241015 1.7483793 1.2907388e-38
10.143088 -1.2382834 1.8021362 1.244641e-38
10.151605 -1.2371237 1.8587836 1.1340062e-38
10.159813 -1.2359288 1.9155648 1.3368366e-38
10.167707 -1.2346984 1.9724778 1.4013736e-38
10.15808 -1.2318488 2.0263126 1.0418106e-38
10.165366 -1.2305523 2.0833938 8.2976067e-39
10.172337 -1.2292204 2.1406019 8.2054111e-39
10.161832 -1.2262837 2.1944554 8.5741936e-39
10.185328 -1.2264497 2.2553914 8.4819979e-39
10.191348 -1.2250109 2.312969 8.8507805e-39
10.179946 -1.2219822 2.3669174 8.5741936e-39
10.190423 -1.2189362 2.4824848 8.5741936e-39
10.19518 -1.2173594 2.5404415 8.7585848e-39
10.199614 -1.2157469 2.5985107 1.0602497e-38
10.169722 -1.211042 2.6482959 8.8507805e-39
9.4821434 -1.3077837 -1.5617164 8.9429761e-39
9.4736605 -1.3048972 -1.5084873 9.7727368e-39
9.4648867 -1.3019863 -1.4553955 9.8649324e-39
9.4730864 -1.3008909 -1.405175 1.1432258e-38
9.4810247 -1.2997675 -1.3549129 9.957128e-39
9.4886999 -1.2986163 -1.3046107 1.0786889e-38
9.4788055 -1.2956041 -1.2518104 1.3737149e-38
9.5205879 -1.2980613 -1.2062606 1.3460562e-38
9.5274887 -1.2968245 -1.1557555 1.2169823e-38
9.5341272 -1.2955599 -1.1052158 1.097128e-38
9.5578585 -1.2960916 -1.0567378 1.3276171e-38
9.5813494 -1.2965908 -1.0080452 1.2354214e-38
9.6393547 -1.3006959 -0.96296358 1.3460562e-38
9.6797657 -1.3029416 -0.91548347 1.3829344e-38
9.7199488 -1.3051493 -0.8676095 1.4013736e-38
9.8295326 -1.3145655 -0.8258931 1.3460562e-38
9.8518686 -1.314877 -0.7753222 1.1340062e-38
9.8913746 -1.3169612 -0.7259984 1.4290323e-38
9.8957748 -1.3153992 -0.67355973 1.1524454e-38
9.9347801 -1.3174105 -0.62364155 1.5857648e-38
9.9386463 -1.3157861 -0.57097811 1.7885952e-38
9.9073334 -1.3105434 -0.51612103 1.5581061e-38
9.9106398 -1.3088685 -0.46360549 1.2538606e-38
9.8962069 -1.3053762 -0.4101705 1.834693e-38
9.8989611 -1.3036481 -0.35771698 1.7793757e-38
9.9014416 -1.3018922 -0.30525082 1.5857648e-38
9.9036474 -1.3001082 -0.25277328 1.5212279e-38
9.9055796 -1.2982963 -0.20028599 1.6963996e-38
9.907239 -1.2964567 -0.14779034 1.4935692e-38
9.9435949 -1.2981299 -0.095992386 1.5765453e-38
9.9447098 -1.2962282 -0.043300297 1.539667e-38
9.9455519 -1.2942986 0.0093959039 1.4382518e-38
9.928628 -1.2905812 0.06217118 1.2907388e-38
