# .PCD v0.7 - Point Cloud Data file format
VERSION 0.7
FIELDS x y z rgb
SIZE 4 4 4 4
TYPE F F F F
COUNT 1 1 1 1
WIDTH 1038
HEIGHT 1
VIEWPOINT 9.12 10.1615 5.84927 0.998351 0.0362801 -0.00973871 -0.0434122
POINTS 1038
DATA ascii
5.0401101 -1.681205 0.075713016 1.0049324e-38
5.0755463 -1.6815381 0.10268255 1.0141519e-38
5.0581074 -1.6818247 0.13015144 1.1340062e-38
4.9526348 -1.6820196 0.15719335 9.5883455e-39
8.3273802 -1.6859417 0.21098588 1.1063476e-38
4.9522057 -1.6826113 0.21075474 1.1340062e-38
8.3789272 -1.6869861 0.30085596 1.0879084e-38
8.4131298 -1.6875235 0.34640762 1.1155671e-38
5.1086464 -1.6837044 0.29565975 1.1155671e-38
4.9672318 -1.6838169 0.31845006 8.3898023e-39
5.0365009 -1.6842127 0.34807637 1.3368366e-38
5.052916 -1.6845385 0.37607875 1.2169823e-38
8.4575338 -1.6900773 0.57343996 1.1432258e-38
8.4551601 -1.6905739 0.61856592 9.7727368e-39
4.9416485 -1.6855593 0.47833279 9.7727368e-39
8.46416 -1.6920923 0.75510478 9.5883455e-39
5.2182932 -1.6866591 0.5531348 1.1708845e-38
4.935751 -1.6864394 0.5584603 1.0786889e-38
4.9311204 -1.6870248 0.61182296 8.7585848e-39
5.0160728 -1.6874975 0.64699823 8.3898023e-39
5.0499845 -1.6894011 0.81615895 1.0325911e-38
5.0463881 -1.6896992 0.84344089 1.244641e-38
5.1645107 -1.6903055 0.88773936 1.0233715e-38
5.1998062 -1.6916646 1.0075246 9.3117586e-39
5.1181216 -1.7121459 -0.89136302 8.9429761e-39
8.4989147 -1.7099787 -1.4612664 9.3117586e-39
5.2771969 -1.7128899 -0.80480385 9.1273674e-39
8.54041 -1.7109985 -1.3279985 8.3898023e-39
8.5480032 -1.7113433 -1.2824247 9.219563e-39
5.2567239 -1.7135564 -0.71378005 9.6805411e-39
4.9871955 -1.7141206 -0.61587834 1.1708845e-38
4.9911094 -1.7143242 -0.58891827 9.6805411e-39
5.0471272 -1.7145066 -0.56910396 1.1432258e-38
4.9985127 -1.7147316 -0.53493845 9.219563e-39
5.2496576 -1.7150688 -0.51049107 9.1273674e-39
5.2355547 -1.7152867 -0.48013481 1.1708845e-38
8.9951563 -1.7147169 -0.86724323 9.219563e-39
8.8429976 -1.7151045 -0.8027308 8.9429761e-39
8.9177999 -1.7154502 -0.76257539 9.8649324e-39
8.9049292 -1.7158093 -0.71337605 9.4961499e-39
4.9874482 -1.7163643 -0.31520146 8.8507805e-39
4.9722714 -1.716567 -0.28677022 1.0049324e-38
4.976512 -1.7169708 -0.2330042 9.8649324e-39
5.2414799 -1.7172008 -0.22408473 1.0602497e-38
4.9626465 -1.7173721 -0.17808995 1.1340062e-38
4.9642682 -1.7175732 -0.15126437 1.1340062e-38
4.9481959 -1.7177703 -0.12350764 9.1273674e-39
4.949532 -1.7179708 -0.096758462 1.1340062e-38
4.986917 -1.7183836 -0.044535365 9.5883455e-39
5.0405474 -1.7186053 -0.01925019 8.7585848e-39
4.9534764 -1.7187721 0.01029717 9.6805411e-39
4.9018793 -1.719146 0.064687654 8.8507805e-39
5.0428481 -1.7194196 0.089694485 1.1801041e-38
5.0782223 -1.7196432 0.11674607 8.7585848e-39
5.0607209 -1.7198371 0.14417583 1.2077628e-38
4.9727645 -1.7199835 0.17106576 1.0325911e-38
8.3298016 -1.7225122 0.23250686 1.1247867e-38
8.3643789 -1.7228693 0.27750266 9.957128e-39
8.3811426 -1.7232153 0.32249787 9.5883455e-39
8.4152412 -1.7235769 0.36812931 1.1247867e-38
5.1108813 -1.7211038 0.30980507 9.4039542e-39
4.9342823 -1.721153 0.33098987 9.6805411e-39
5.0386162 -1.7214491 0.36205792 1.3829344e-38
5.0549669 -1.7216685 0.39009878 1.0418106e-38
4.9307337 -1.7217476 0.41098195 1.0602497e-38
8.4334517 -1.7262837 0.72940177 8.9429761e-39
4.9220281 -1.7227359 0.54414654 1.0602497e-38
4.9373851 -1.7229548 0.57221735 8.8507805e-39
4.9350791 -1.7231524 0.59890044 8.4819979e-39
4.9326329 -1.7233499 0.62557101 8.2976067e-39
5.0510297 -1.7249497 0.83018571 1.1247867e-38
5.0473709 -1.7251509 0.85746026 1.0233715e-38
5.1653919 -1.7255563 0.90203089 8.7585848e-39
5.2004137 -1.7264723 1.0219008 9.3117586e-39
4.9769659 -1.7246072 -0.97179115 8.8507805e-39
5.1145205 -1.7247955 -0.91527086 8.5741936e-39
4.9647541 -1.7253058 -0.85723931 9.6805411e-39
8.4580297 -1.7176861 -1.4946297 9.3117586e-39
8.5010729 -1.7178708 -1.4558873 1.3460562e-38
8.5093431 -1.7181332 -1.4105244 1.1155671e-38
8.5173759 -1.7183961 -1.3651189 1.1155671e-38
8.5425043 -1.718623 -1.3225976 1.1155671e-38
8.5500755 -1.7188874 -1.2770196 1.0141519e-38
4.998085 -1.7263966 -0.66882998 9.0351717e-39
4.9849057 -1.7265884 -0.63916576 1.0233715e-38
4.9889474 -1.7267451 -0.61222422 1.1708845e-38
5.0450587 -1.7268009 -0.59267557 9.4039542e-39
5.0488567 -1.7269598 -0.56541973 1.1985432e-38
8.8344841 -1.7200263 -1.0348195 8.3898023e-39
8.7533445 -1.7204622 -0.97672892 9.3117586e-39
8.7765532 -1.7207035 -0.93215787 9.8649324e-39
8.7995396 -1.7209463 -0.88737458 1.0879084e-38
8.8397741 -1.7211602 -0.84430331 9.1273674e-39
8.8623199 -1.7214065 -0.7990073 1.0694693e-38
8.9021292 -1.7216249 -0.75524247 1.0786889e-38
8.9242268 -1.7218748 -0.70943791 1.2999584e-38
8.9460917 -1.7221262 -0.66342664 1.0694693e-38
8.9502058 -1.722407 -0.61574459 1.244641e-38
8.9891195 -1.7226335 -0.57078868 1.1063476e-38
4.9780793 -1.7290472 -0.22935158 1.3276171e-38
4.9799762 -1.7292061 -0.20245145 1.0325911e-38
5.104538 -1.7291853 -0.18322876 1.2077628e-38
4.9657965 -1.7295495 -0.14761698 1.2999584e-38
4.9497104 -1.729733 -0.11986791 1.2169823e-38
5.1968579 -1.7295548 -0.10463209 1.0694693e-38
5.1278467 -1.7298152 -0.073666163 8.6663892e-39
4.9883938 -1.7301635 -0.040875752 9.957128e-39
4.9541636 -1.7303685 -0.012831116 9.1273674e-39
4.9549265 -1.7305278 0.013940818 1.1340062e-38
4.8501029 -1.7308152 0.042891592 9.6805411e-39
4.8329992 -1.7309923 0.069388427 9.219563e-39
5.0618372 -1.7308854 0.093204536 1.1985432e-38
5.0268874 -1.731088 0.12071168 8.7585848e-39
5.0621066 -1.7312121 0.14787371 1.2722997e-38
8.3315058 -1.7279212 0.19336669 1.0879084e-38
4.9563403 -1.7316476 0.20140478 1.0879084e-38
8.3656988 -1.7284191 0.28283241 1.0510302e-38
8.4351635 -1.7286193 0.3289575 1.0510302e-38
8.4165163 -1.728906 0.37348506 1.1708845e-38
8.3976402 -1.7291918 0.41782242 9.3117586e-39
4.9355774 -1.7324672 0.33462721 1.1708845e-38
5.0398965 -1.7325397 0.36574703 1.2630801e-38
4.9333258 -1.7327887 0.387961 1.2538606e-38
4.9319906 -1.7329495 0.41461831 9.957128e-39
8.4402456 -1.7305028 0.64475381 9.5883455e-39
8.4726038 -1.7307501 0.69198799 9.3117586e-39
8.5923872 -1.7309401 0.74558026 9.4961499e-39
4.9252534 -1.7335943 0.52116668 9.219563e-39
4.9232206 -1.7337557 0.54777992 1.1708845e-38
4.936245 -1.734069 0.60254079 1.097128e-38
8.6611977 -1.7322838 0.98274368 9.1273674e-39
4.9311876 -1.7343935 0.6558668 9.4039542e-39
5.052084 -1.7353266 0.83388561 1.1985432e-38
5.0484123 -1.7354938 0.86115861 9.0351717e-39
5.2013755 -1.7363112 1.0256763 1.0049324e-38
4.9763737 -1.753857 -1.0231091 9.6805411e-39
4.9652781 -1.7540277 -0.9923569 9.219563e-39
4.9535708 -1.7546269 -0.87775177 9.957128e-39
8.4440022 -1.7468927 -1.5305393 9.4961499e-39
8.4699459 -1.7470732 -1.4887127 1.1432258e-38
8.4956865 -1.7472551 -1.4466604 1.3183975e-38
8.5039186 -1.747476 -1.4012905 1.3552758e-38
8.5119143 -1.7476975 -1.3558781 9.6805411e-39
8.5196714 -1.7479194 -1.3104243 1.1155671e-38
8.5792408 -1.748033 -1.273393 1.1340062e-38
8.621295 -1.7481856 -1.2330477 9.0351717e-39
8.6284075 -1.7484113 -1.1870229 9.4039542e-39
4.9828644 -1.7559757 -0.60589951 1.0141519e-38
8.6767197 -1.748795 -1.0997787 8.7585848e-39
4.9904804 -1.7562412 -0.55194831 9.0351717e-39
8.7475605 -1.7493811 -0.96729112 8.4819979e-39
8.8230925 -1.7494811 -0.928976 9.6805411e-39
8.8111458 -1.7497463 -0.87989849 1.0418106e-38
8.8164072 -1.7499794 -0.83288461 9.3117586e-39
8.8738728 -1.7501189 -0.79129589 1.2630801e-38
8.9136562 -1.7502924 -0.74740636 1.2907388e-38
8.9182215 -1.7505291 -0.69985753 1.2169823e-38
8.9575586 -1.7507062 -0.65537053 1.0510302e-38
8.9441233 -1.7509742 -0.60614228 1.1432258e-38
8.9829998 -1.7511544 -0.56115401 1.1801041e-38
4.9716797 -1.7579418 -0.22303413 1.0694693e-38
9.0425444 -1.7515498 -0.46884364 9.8649324e-39
5.0980997 -1.7580179 -0.17680648 1.0325911e-38
4.8364782 -1.7585645 -0.13436703 1.2722997e-38
4.9607754 -1.758509 -0.11447329 1.1801041e-38
5.1903548 -1.7583026 -0.09813305 8.2054111e-39
4.9475842 -1.759076 -0.006532473 9.7727368e-39
4.8428893 -1.759358 0.022880277 8.7585848e-39
4.8259029 -1.759515 0.049452379 8.8507805e-39
4.8263521 -1.7596477 0.075587191 9.5883455e-39
5.0551701 -1.7594812 0.099592753 8.3898023e-39
5.0729313 -1.7595978 0.12685539 1.0141519e-38
5.0553942 -1.7597597 0.15426241 9.219563e-39
4.9498248 -1.7600288 0.18092436 9.0351717e-39
4.949584 -1.7601657 0.2077062 1.0418106e-38
4.949203 -1.7603027 0.2344864 8.4819979e-39
8.428299 -1.7564393 0.33813792 9.957128e-39
5.1061645 -1.7603996 0.29236135 1.0233715e-38
4.9296498 -1.760734 0.31423768 9.4039542e-39
4.9287109 -1.7608712 0.34091204 1.097128e-38
4.9451942 -1.7609901 0.36833733 9.1273674e-39
4.926415 -1.7611459 0.39424422 9.7727368e-39
8.3303318 -1.7579147 0.60327214 1.0602497e-38
8.3629293 -1.7581109 0.64981204 1.1524454e-38
8.5706921 -1.758145 0.70794392 9.3117586e-39
8.5150337 -1.7584298 0.75003004 8.5741936e-39
4.9182324 -1.7618353 0.52744389 9.8649324e-39
4.9337001 -1.7619586 0.55545473 1.0049324e-38
4.9314981 -1.7620975 0.582147 8.2054111e-39
8.6230764 -1.7592759 0.94276142 1.0602497e-38
8.6537933 -1.7594888 0.99211407 8.5741936e-39
5.0448041 -1.7632704 0.84026909 9.4039542e-39
4.9246931 -1.7644536 1.042626 8.6663892e-39
4.9717617 -1.8030766 -0.97422248 9.957128e-39
4.9597054 -1.8034937 -0.85965276 1.097128e-38
8.4521122 -1.801977 -1.501832 1.0141519e-38
8.4952078 -1.8021291 -1.4631481 1.2907388e-38
8.50354 -1.8022975 -1.4177959 1.2999584e-38
8.5116348 -1.8024658 -1.3724009 1.1985432e-38
8.5541487 -1.802621 -1.3328635 1.2354214e-38
8.5617981 -1.8027903 -1.2872045 1.3091779e-38
8.5865669 -1.8029536 -1.2442743 1.3276171e-38
8.611125 -1.8031176 -1.201124 9.7727368e-39
8.6528568 -1.8032771 -1.1603408 1.0602497e-38
8.6248007 -1.8034581 -1.1091774 9.219563e-39
4.9956217 -1.8046973 -0.53373659 8.7585848e-39
8.7714024 -1.8041142 -0.93979037 9.8649324e-39
8.8293676 -1.8042773 -0.8991155 1.097128e-38
8.8172722 -1.8044542 -0.85007423 1.0694693e-38
8.8398695 -1.8046252 -0.80489999 1.1432258e-38
8.8972187 -1.8047924 -0.76304501 1.2999584e-38
8.9193773 -1.8049655 -0.71727031 1.2354214e-38
8.9413052 -1.8051394 -0.67128849 1.1524454e-38
8.9454851 -1.8053151 -0.62361151 1.1432258e-38
9.0370283 -1.8054864 -0.58290124 1.1063476e-38
8.9881544 -1.8056657 -0.53080684 1.3276171e-38
9.0442066 -1.8058414 -0.48652852 1.1155671e-38
9.0474176 -1.8060189 -0.43831533 9.0351717e-39
5.1020975 -1.8060994 -0.15826702 9.957128e-39
4.8403482 -1.8061893 -0.11662273 1.3829344e-38
4.9470258 -1.8062923 -0.095504649 1.1893236e-38
4.7912345 -1.806473 -0.036024727 8.5741936e-39
4.8799896 -1.806579 -0.012938986 8.6663892e-39
4.9510641 -1.8066858 0.011549759 9.219563e-39
4.8462801 -1.8067673 0.040644333 1.0233715e-38
4.8295822 -1.8069564 0.093301065 1.0141519e-38
5.0584264 -1.8072021 0.14533731 1.0325911e-38
4.9529157 -1.8072753 0.17223123 8.3898023e-39
4.9527335 -1.8073735 0.1990137 9.1273674e-39
4.9699869 -1.8074768 0.22605248 9.3117586e-39
4.8810549 -1.8076444 0.2775836 9.4961499e-39
5.1263027 -1.8078274 0.31145975 9.1273674e-39
8.44555 -1.8091586 0.45739764 9.4039542e-39
4.9486957 -1.8079615 0.35965511 1.1432258e-38
5.1582456 -1.8081455 0.39612788 8.8507805e-39
4.9286737 -1.8081496 0.41226277 8.9429761e-39
8.3319407 -1.8097701 0.63163739 1.2354214e-38
8.4345741 -1.8099817 0.68261766 9.3117586e-39
8.4316721 -1.810146 0.72762287 1.1985432e-38
8.4110012 -1.8103013 0.77134323 9.219563e-39
4.9376106 -1.8086449 0.54679847 1.1985432e-38
4.9354672 -1.8087423 0.57349569 1.0418106e-38
8.5752993 -1.8108908 0.92137074 1.1155671e-38
8.6236496 -1.8110881 0.97201705 1.2354214e-38
8.6542158 -1.8112767 1.0214632 8.2054111e-39
4.7828641 -1.8091384 0.69150889 9.0351717e-39
4.9422803 -1.8105413 1.0637349 8.3898023e-39
4.9374304 -1.8106381 1.0904496 8.8507805e-39
4.953773 -1.8333843 -0.85280657 9.0351717e-39
8.4813709 -1.8376139 -1.4979758 9.4039542e-39
8.5071764 -1.8377901 -1.4558629 1.0325911e-38
8.5327787 -1.8379668 -1.4135247 1.1801041e-38
8.5408583 -1.8381225 -1.3679401 1.0602497e-38
8.5486984 -1.8382779 -1.3223137 1.3368366e-38
8.5563011 -1.838433 -1.2766469 1.2722997e-38
8.5983868 -1.8386321 -1.236441 1.2169823e-38
8.5881624 -1.8387648 -1.1878561 9.957128e-39
8.6472282 -1.8389876 -1.1496891 1.1524454e-38
8.653924 -1.8391427 -1.1035086 9.219563e-39
8.7423201 -1.839702 -0.97357982 8.2976067e-39
8.7480936 -1.839857 -0.92690402 9.3117586e-39
8.8234682 -1.8401099 -0.88828146 1.1893236e-38
8.8287935 -1.8402655 -0.84118187 1.0325911e-38
8.9212809 -1.8405466 -0.80324388 1.0510302e-38
8.9086695 -1.8406775 -0.75388712 1.2262019e-38
8.91329 -1.8408332 -0.70634323 1.1801041e-38
8.9001532 -1.8409624 -0.65721291 1.0510302e-38
8.9918489 -1.8412489 -0.61707121 1.1247867e-38
8.9782286 -1.841378 -0.56771421 9.3117586e-39
9.0519972 -1.8416409 -0.52495968 1.0879084e-38
9.1080294 -1.8418787 -0.48025629 9.8649324e-39
9.1463013 -1.8420901 -0.43388054 9.1273674e-39
9.201889 -1.8423303 -0.3881335 9.0351717e-39
4.8336468 -1.8354772 -0.10989852 1.2538606e-38
4.9578614 -1.8357599 -0.08949887 1.0233715e-38
4.839416 -1.8359754 0.047374871 8.5741936e-39
5.0335889 -1.8364748 0.097801246 9.7727368e-39
4.8052912 -1.8361598 0.12624493 8.5741936e-39
5.0514536 -1.8366754 0.15228662 9.0351717e-39
4.8402424 -1.8364651 0.20475189 8.6663892e-39
4.8574753 -1.8365778 0.23125631 8.3898023e-39
4.9415011 -1.8371458 0.36649165 9.1273674e-39
4.7283301 -1.8369011 0.40896311 9.5883455e-39
8.3595562 -1.8440447 0.6439839 1.1985432e-38
8.3744078 -1.8442129 0.68973684 1.1432258e-38
8.3714771 -1.8443465 0.73446357 1.1524454e-38
8.4209042 -1.8445846 0.78303546 9.4961499e-39
8.4875803 -1.844859 0.83351958 8.6663892e-39
8.5364437 -1.8450996 0.88324851 1.0233715e-38
8.6025324 -1.8453771 0.93506992 1.0510302e-38
8.6158142 -1.8455482 0.98264164 1.0510302e-38
4.7753263 -1.8378814 0.69817501 1.0418106e-38
8.7960873 -1.9294162 -1.5098886 8.5741936e-39
8.5106173 -1.928326 -1.4098325 8.6663892e-39
8.5360165 -1.9286627 -1.3673738 8.9429761e-39
8.5785398 -1.9290801 -1.3276327 8.8507805e-39
8.5515032 -1.9291732 -1.276089 9.4039542e-39
8.5936079 -1.9295903 -1.2359045 1.0233715e-38
4.7958107 -1.9118159 -0.6057148 1.0049324e-38
8.625102 -1.9301789 -1.1466005 8.4819979e-39
8.8188524 -1.9324433 -0.88785946 8.7585848e-39
8.8242006 -1.9326923 -0.84076279 9.8649324e-39
8.9691477 -1.9336338 -0.8084107 8.7585848e-39
9.0440378 -1.9342331 -0.76754797 1.1155671e-38
8.943759 -1.9339579 -0.7092939 1.0325911e-38
8.9656773 -1.934293 -0.66311741 1.0879084e-38
4.76613 -1.913267 -0.26005659 9.5883455e-39
9.0263348 -1.9350512 -0.5715363 9.0351717e-39
9.0475531 -1.9353858 -0.52465409 8.2976067e-39
9.1737518 -1.9362601 -0.48479772 8.6663892e-39
4.8280039 -1.9141943 -0.13367875 9.1273674e-39
4.7241383 -1.913776 -0.10191384 1.0141519e-38
4.7265825 -1.9140288 -0.050615236 8.2976067e-39
4.692472 -1.9139686 -0.02365052 9.1273674e-39
4.640646 -1.9138126 0.0035125373 8.7585848e-39
4.7474341 -1.9146198 0.051667478 9.957128e-39
4.6779618 -1.914485 0.10397451 9.8649324e-39
4.8012166 -1.9152726 0.12866777 8.4819979e-39
4.6957765 -1.9149382 0.18026358 9.6805411e-39
4.6955886 -1.9150561 0.20575735 8.6663892e-39
4.6776919 -1.9150763 0.23098283 8.2976067e-39
4.6948133 -1.9152899 0.25674021 9.1273674e-39
4.7117972 -1.9155035 0.2826789 9.219563e-39
4.746212 -1.9158157 0.30934113 9.4961499e-39
4.7102156 -1.9157336 0.33382729 8.8507805e-39
4.7443485 -1.9160459 0.36084846 8.3898023e-39
4.7432151 -1.9161599 0.38659412 9.3117586e-39
4.7595005 -1.9163731 0.41324428 9.8649324e-39
8.3907795 -1.9372696 0.64663357 1.1893236e-38
8.3705549 -1.9373634 0.69037336 1.0418106e-38
8.6833258 -1.9393778 0.75645733 8.4819979e-39
8.7852535 -1.9401859 0.81049162 8.4819979e-39
4.7743039 -1.9176741 0.67471105 9.0351717e-39
8.889823 -1.948761 -1.6766939 8.2976067e-39
8.7876987 -1.948781 -1.5585358 8.5741936e-39
8.796566 -1.9490601 -1.5115988 9.219563e-39
9.0127573 -1.950292 -1.5021517 9.3117586e-39
8.8481913 -1.9497749 -1.4236636 8.5741936e-39
9.029644 -1.9508573 -1.4058783 8.5741936e-39
8.5520658 -1.9488674 -1.277712 8.4819979e-39
4.7966132 -1.9315698 -0.60599631 1.0602497e-38
8.8343563 -1.9508989 -1.1792471 8.6663892e-39
4.7173462 -1.9314519 -0.54146242 9.219563e-39
8.9766912 -1.9530115 -0.90789974 8.6663892e-39
8.9996195 -1.9533629 -0.86192626 9.219563e-39
9.0572767 -1.9538877 -0.81944734 1.0049324e-38
9.0447817 -1.9540652 -0.76934773 1.0694693e-38
8.9445229 -1.9538015 -0.7110579 9.957128e-39
4.7647939 -1.9329654 -0.2861838 1.097128e-38
9.058219 -1.9548501 -0.62445968 9.1273674e-39
9.0797148 -1.9551985 -0.57751352 9.1273674e-39
4.7010541 -1.9330224 -0.20337151 8.9429761e-39
9.1219873 -1.9558942 -0.48301134 9.4039542e-39
4.8289742 -1.9340645 -0.13397241 1.0786889e-38
4.7075667 -1.9335594 -0.10123505 9.5883455e-39
4.7275825 -1.9339164 -0.050872743 9.8649324e-39
4.6934814 -1.9338619 -0.023895869 9.5883455e-39
4.6951265 -1.9341211 0.027066218 9.1273674e-39
4.7484703 -1.9345331 0.051402394 1.0786889e-38
4.6786623 -1.9342825 0.078334279 9.4039542e-39
4.6790166 -1.9344091 0.10373419 9.4039542e-39
4.6969037 -1.9347565 0.15452242 9.5883455e-39
4.6968584 -1.9348814 0.1800168 1.0602497e-38
4.6966801 -1.9350057 0.2055106 1.0510302e-38
4.6787925 -1.9350314 0.23074245 8.3898023e-39
4.6959224 -1.9352518 0.25649366 1.0049324e-38
4.6953435 -1.9353737 0.28198153 1.1155671e-38
4.6946311 -1.9354949 0.30746603 1.0325911e-38
4.7113523 -1.9357148 0.33357513 1.0325911e-38
4.7454953 -1.9360347 0.36058411 9.219563e-39
4.7443705 -1.9361548 0.38633013 1.0049324e-38
4.7606654 -1.936375 0.41297445 1.1063476e-38
8.3920269 -1.9574291 0.64506555 1.1893236e-38
8.3718176 -1.957533 0.68881249 1.1247867e-38
4.6683717 -1.9362202 0.48452401 1.0786889e-38
8.733964 -1.9600892 0.80496639 9.957128e-39
4.7347937 -1.93686 0.54065049 8.4819979e-39
8.5690489 -1.9595782 0.88509488 9.6805411e-39
4.7755623 -1.9377403 0.67443562 9.5883455e-39
4.75139 -1.9408568 1.336278 8.9429761e-39
8.8036823 -1.9483743 -1.6592462 8.8507805e-39
8.9693747 -1.9498497 -1.5437837 1.0602497e-38
8.9781618 -1.950133 -1.4958957 9.8649324e-39
8.9866991 -1.9504151 -1.4479624 8.7585848e-39
4.7097464 -1.931159 -0.59262586 9.4961499e-39
4.7173462 -1.9314519 -0.54146242 9.5883455e-39
9.1853428 -1.9533036 -1.0814977 8.5741936e-39
4.6928654 -1.9317169 -0.46013823 8.9429761e-39
8.9996195 -1.9533629 -0.86192626 8.5741936e-39
9.0572767 -1.9538877 -0.81944734 9.3117586e-39
9.0447817 -1.9540652 -0.76934773 8.3898023e-39
8.9445229 -1.9538015 -0.7110579 9.4961499e-39
4.7647939 -1.9329654 -0.2861838 9.6805411e-39
4.7010541 -1.9330224 -0.20337151 9.3117586e-39
4.8289742 -1.9340645 -0.13397241 9.7727368e-39
4.9708614 -1.9349345 -0.11526546 8.3898023e-39
4.7275825 -1.9339164 -0.050872743 9.4039542e-39
4.7110472 -1.933955 -0.024555409 8.2054111e-39
4.7484703 -1.9345331 0.051402394 8.6663892e-39
4.6786623 -1.9342825 0.078334279 9.6805411e-39
4.6614399 -1.9343138 0.10393368 9.3117586e-39
4.6616602 -1.9344392 0.12924306 9.0351717e-39
4.6969037 -1.9347565 0.15452242 8.3898023e-39
4.6968584 -1.9348814 0.1800168 9.5883455e-39
4.6966801 -1.9350057 0.2055106 9.4039542e-39
4.6436405 -1.934836 0.23022109 8.3898023e-39
4.6959224 -1.9352518 0.25649366 8.6663892e-39
4.7129159 -1.9354722 0.28242627 9.7727368e-39
4.6946311 -1.9354949 0.30746603 1.0510302e-38
4.6059527 -1.9351183 0.3298029 8.3898023e-39
4.7103691 -1.9358349 0.35914275 9.219563e-39
4.6741343 -1.9357537 0.38307962 8.5741936e-39
4.7606654 -1.936375 0.41297445 8.8507805e-39
8.3920269 -1.9574291 0.64506555 1.1893236e-38
8.3718176 -1.957533 0.68881249 9.6805411e-39
8.6846123 -1.9595722 0.75478464 9.957128e-39
8.733964 -1.9600892 0.80496639 9.6805411e-39
4.6646943 -1.9364487 0.53519541 8.5741936e-39
4.7755623 -1.9377403 0.67443562 9.1273674e-39
4.7319455 -1.9378617 0.747895 9.4039542e-39
4.7574887 -1.9407637 1.310482 9.3117586e-39
4.735384 -1.9529502 -0.94054705 8.4819979e-39
8.7689419 -1.9580821 -1.749561 8.3898023e-39
8.8057013 -1.9585713 -1.6593529 9.4961499e-39
8.8323622 -1.9588273 -1.6157415 8.2976067e-39
8.9796486 -1.9592421 -1.5951147 8.4819979e-39
8.971446 -1.9594562 -1.5439608 1.2077628e-38
8.9802551 -1.9596926 -1.4960766 1.0786889e-38
8.9888144 -1.9599286 -1.4481467 9.957128e-39
9.0317783 -1.9602131 -1.4060808 8.3898023e-39
9.0398645 -1.9604492 -1.3578825 8.8507805e-39
9.047698 -1.9606851 -1.3096426 9.4039542e-39
4.7121863 -1.9544847 -0.59098476 9.6805411e-39
9.1147671 -1.9612342 -1.2208143 9.0351717e-39
9.1218824 -1.9614702 -1.172184 9.5883455e-39
4.6920457 -1.9549261 -0.48395297 9.6805411e-39
9.1940088 -1.9622599 -1.0327563 1.0786889e-38
9.235034 -1.9625524 -0.98798269 9.219563e-39
4.724781 -1.9555671 -0.35833368 9.219563e-39
8.9469643 -1.9631789 -0.71122307 8.8507805e-39
4.7673707 -1.9559946 -0.28456566 9.3117586e-39
4.6995854 -1.955991 -0.25273585 8.7585848e-39
4.7036667 -1.9562312 -0.20172605 1.0049324e-38
4.6019611 -1.9562714 -0.14391667 9.219563e-39
4.6035004 -1.9563881 -0.11892976 9.7727368e-39
4.7127018 -1.9569458 -0.048479348 9.219563e-39
4.6434779 -1.9569228 -0.020245798 1.0418106e-38
4.5924129 -1.9570465 0.031612899 8.7585848e-39
4.7511964 -1.9574901 0.053028058 8.3898023e-39
4.6638241 -1.9574231 0.080288783 9.8649324e-39
4.6641884 -1.9575386 0.10559655 9.219563e-39
4.6644197 -1.9576539 0.13090588 8.4819979e-39
4.7348313 -1.9579219 0.1561244 8.2976067e-39
4.7172194 -1.9579996 0.1817338 9.4961499e-39
4.6115875 -1.9578807 0.20635284 8.7585848e-39
4.699173 -1.958191 0.23265131 1.0510302e-38
4.7163138 -1.9583457 0.25848731 1.0602497e-38
4.6981711 -1.95842 0.28363025 9.3117586e-39
4.6974702 -1.9585341 0.30911508 9.5883455e-39
4.6088004 -1.9584421 0.33148983 8.9429761e-39
4.7132316 -1.9588028 0.36078516 9.219563e-39
4.6770067 -1.9588324 0.38473755 1.0049324e-38
4.6582217 -1.9589024 0.4092131 9.6805411e-39
8.3950624 -1.9681251 0.64513826 1.2630801e-38
4.6378284 -1.9590821 0.45867267 1.0049324e-38
8.8981667 -1.9697835 0.76880515 1.0233715e-38
8.8247366 -1.9698156 0.81121618 1.0418106e-38
4.667634 -1.9595017 0.5368576 9.1273674e-39
4.6305709 -1.9595225 0.55928302 9.5883455e-39
4.6809587 -1.9597673 0.58902937 8.8507805e-39
4.6436543 -1.9597863 0.61115712 9.3117586e-39
4.7785654 -1.9603748 0.67605078 8.4819979e-39
4.7349806 -1.960613 0.74952888 8.3898023e-39
4.7318397 -1.9607226 0.77520013 8.2054111e-39
4.7607732 -1.9632202 1.3121059 8.6663892e-39
4.7223496 -1.9655395 -0.9623313 9.957128e-39
8.8036871 -1.9633715 -1.801037 8.2054111e-39
8.7966576 -1.96358 -1.7503202 9.6805411e-39
8.7893429 -1.9637878 -1.6997309 9.8649324e-39
8.8851194 -1.9639413 -1.6701833 1.1155671e-38
8.963583 -1.9641075 -1.6362882 9.3117586e-39
8.955615 -1.9643176 -1.5850973 1.0325911e-38
8.9646435 -1.9645193 -1.5372536 1.2262019e-38
9.0253162 -1.9646988 -1.498735 1.0694693e-38
9.0165768 -1.9649088 -1.4474944 1.1432258e-38
9.0075541 -1.9651182 -1.3963908 1.0233715e-38
9.032939 -1.9653144 -1.3511295 1.1432258e-38
9.040741 -1.9655174 -1.3028842 1.0602497e-38
9.0482912 -1.9657204 -1.2545987 9.0351717e-39
9.1077518 -1.9659082 -1.2140112 1.1247867e-38
9.2192421 -1.9660841 -1.1803031 1.0602497e-38
4.6811023 -1.9674237 -0.50554323 1.0879084e-38
4.7019629 -1.9675266 -0.48240089 1.1708845e-38
9.1868696 -1.9667151 -1.0259001 1.1340062e-38
9.2453156 -1.9669112 -0.98322195 9.219563e-39
4.6940403 -1.9678512 -0.40364882 9.219563e-39
4.6647472 -1.9680691 -0.34890848 8.4819979e-39
4.7597303 -1.9683833 -0.28065765 8.8507805e-39
4.6919241 -1.9684935 -0.24887295 9.219563e-39
4.6609116 -1.9687061 -0.19526324 8.3898023e-39
4.6101117 -1.9688101 -0.16630508 8.3898023e-39
4.5942283 -1.9689137 -0.14011864 1.3183975e-38
4.6834927 -1.969025 -0.12024592 9.957128e-39
4.6498027 -1.9691277 -0.092928506 8.9429761e-39
4.6861935 -1.9692374 -0.069328658 8.9429761e-39
4.6346569 -1.9693359 -0.041618258 1.0510302e-38
4.6356635 -1.9694409 -0.016419932 1.2722997e-38
4.6716757 -1.9695525 0.0076566241 9.4039542e-39
4.5845642 -1.9696398 0.035404816 1.1063476e-38
4.5851679 -1.9697435 0.060339794 9.0351717e-39
4.6559439 -1.9698652 0.08412835 1.2262019e-38
4.6387143 -1.9699656 0.10963168 9.4961499e-39
4.6037726 -1.9700599 0.13505566 9.957128e-39
4.7269011 -1.9702033 0.16001138 8.8507805e-39
4.6389604 -1.9702799 0.18528578 8.5741936e-39
4.6911926 -1.9705095 0.23651464 1.1616649e-38
4.7083163 -1.9706224 0.26236209 1.1985432e-38
4.6374402 -1.9706984 0.28614619 1.0510302e-38
4.6015906 -1.970787 0.31027272 1.0510302e-38
8.7113686 -1.9728315 0.48339623 1.0510302e-38
4.6700401 -1.971029 0.36320826 1.0418106e-38
4.6864853 -1.9711431 0.38940316 1.0786889e-38
8.3892574 -1.9732394 0.60661638 1.1155671e-38
8.3868189 -1.973425 0.65146458 1.1524454e-38
4.6647873 -1.9714489 0.46468055 1.2907388e-38
8.889842 -1.9741023 0.77546686 1.0602497e-38
4.6964269 -1.9716802 0.51792228 1.0510302e-38
4.6769776 -1.9717742 0.54206836 9.4039542e-39
4.622375 -1.9718441 0.56310111 1.0049324e-38
4.6727438 -1.9719839 0.59288114 9.6805411e-39
4.5654197 -1.9720138 0.60841173 1.0510302e-38
4.6155005 -1.9721547 0.6384427 1.0325911e-38
4.6452065 -1.9723886 0.69244188 8.2976067e-39
4.7235022 -1.9727738 0.77908599 9.7727368e-39
4.6819491 -1.9729538 0.82562387 9.1273674e-39
4.6784139 -1.9730582 0.85105801 8.2054111e-39
4.7580519 -1.9749081 1.2901858 1.0418106e-38
8.8646488 -1.9661601 -1.8523782 8.8507805e-39
8.7992983 -1.9667461 -1.7393516 8.9429761e-39
8.7919312 -1.9669757 -1.6887702 1.0233715e-38
8.8704433 -1.9670017 -1.6556541 9.8649324e-39
8.9833536 -1.9669505 -1.6285201 9.8649324e-39
8.9580822 -1.967224 -1.5739608 1.1247867e-38
8.9670601 -1.9674175 -1.5261077 1.1155671e-38
9.0103903 -1.967533 -1.4844192 1.2722997e-38
9.0188999 -1.9677283 -1.4362935 1.0602497e-38
9.0271559 -1.9679242 -1.3881238 1.1155671e-38
9.0178118 -1.9681587 -1.3370781 1.0141519e-38
9.0776377 -1.968242 -1.297143 9.5883455e-39
9.1720495 -1.9682534 -1.2619253 1.0325911e-38
9.1098289 -1.9686022 -1.2027142 1.0879084e-38
9.1168613 -1.968802 -1.1540716 9.5883455e-39
4.6824427 -1.9782509 -0.49893057 1.1708845e-38
4.6684217 -1.9783916 -0.47119206 1.2538606e-38
9.2236309 -1.9692268 -1.0189111 1.0418106e-38
4.6224594 -1.978707 -0.4141067 8.2054111e-39
4.7301989 -1.9786026 -0.40104863 8.2976067e-39
4.6685114 -1.9790583 -0.3169505 8.5741936e-39
4.7584701 -1.9789981 -0.29980883 8.2976067e-39
4.6950588 -1.9794518 -0.21674596 8.5741936e-39
4.6268635 -1.9796859 -0.18611227 8.7585848e-39
4.5951848 -1.9799602 -0.13359833 1.3183975e-38
4.5804925 -1.9802021 -0.082699127 8.2976067e-39
4.6343989 -1.9802186 -0.060249157 9.1273674e-39
4.6355104 -1.9803259 -0.035055291 9.957128e-39
4.6364903 -1.9804333 -0.0098559344 1.0233715e-38
4.6197681 -1.9805696 0.015892955 9.219563e-39
4.6029091 -1.9807053 0.04146193 1.0233715e-38
4.6562114 -1.9807292 0.065407313 1.0141519e-38
4.6566648 -1.9808379 0.090713672 1.0141519e-38
4.6394086 -1.9809738 0.11619875 8.6663892e-39
4.6044402 -1.9811357 0.14158572 9.4039542e-39
4.7096753 -1.9813083 0.21783637 8.8507805e-39
4.6917534 -1.9814444 0.24313708 1.0233715e-38
8.6805964 -1.9759707 0.35386813 1.0602497e-38
4.5852332 -1.9818115 0.29130912 1.0602497e-38
8.7484055 -1.9762801 0.44884723 9.4961499e-39
8.8697577 -1.9763206 0.5001353 1.0602497e-38
4.6177812 -1.9820926 0.36757776 1.0418106e-38
8.9535408 -1.9766231 0.5990262 9.3117586e-39
4.6329465 -1.982291 0.41870084 9.4961499e-39
8.8607483 -1.9771527 0.68951583 1.0233715e-38
4.6651087 -1.9824703 0.47127476 1.0694693e-38
4.6458998 -1.9826033 0.4954192 1.0233715e-38
4.6246481 -1.9828472 0.54451585 8.4819979e-39
4.6751409 -1.9828997 0.57408506 9.3117586e-39
4.6355882 -1.9831638 0.62154692 1.0418106e-38
4.6331301 -1.9832764 0.64673769 8.9429761e-39
4.6424251 -1.9835975 0.7242555 8.7585848e-39
4.6644773 -1.9840211 0.82984293 8.8507805e-39
4.7403736 -1.9859095 1.2929461 8.9429761e-39
4.7095776 -2.0336478 -0.91838491 8.3898023e-39
8.8722477 -2.0131998 -1.7951666 9.8649324e-39
8.9340057 -2.013154 -1.7586569 8.8507805e-39
8.7890368 -2.0141218 -1.6789678 8.8507805e-39
8.936471 -2.0136595 -1.6596477 9.957128e-39
8.8769178 -2.0142055 -1.5984132 1.1063476e-38
8.9033232 -2.0143342 -1.554243 1.1155671e-38
8.9468002 -2.0143826 -1.5130321 1.2354214e-38
8.9900951 -2.0144339 -1.471413 1.2999584e-38
9.0158825 -2.0145698 -1.4263802 1.4013736e-38
9.0067816 -2.0148702 -1.375291 1.0786889e-38
9.0494461 -2.0149283 -1.3328154 1.2077628e-38
9.0571899 -2.0151501 -1.2844673 1.2538606e-38
9.0994358 -2.015213 -1.2413654 1.0879084e-38
9.1066999 -2.0154381 -1.192757 1.1985432e-38
9.1485176 -2.015506 -1.1490328 1.2630801e-38
9.1552973 -2.0157342 -1.1001686 1.0510302e-38
4.6475396 -2.0362625 -0.46115145 1.1155671e-38
4.6682196 -2.0363038 -0.43805072 1.2999584e-38
4.6713376 -2.0364239 -0.41265491 1.2169823e-38
9.2497072 -2.0163505 -0.9123947 9.3117586e-39
9.2377729 -2.0166628 -0.86109096 1.0049324e-38
4.6798921 -2.036788 -0.33637434 8.4819979e-39
4.5974216 -2.0374103 -0.27725887 9.0351717e-39
4.6389089 -2.0376284 -0.20488234 8.2976067e-39
4.5899558 -2.0380962 -0.15085585 8.9429761e-39
4.5915709 -2.0382199 -0.12587377 1.0233715e-38
4.5930548 -2.0383444 -0.10088355 1.3829344e-38
4.6119633 -2.0383976 -0.076789863 1.1063476e-38
4.6658678 -2.0383096 -0.054129522 8.4819979e-39
4.6318488 -2.038579 -0.027311228 1.1063476e-38
4.6328163 -2.0387063 -0.0021115143 1.1524454e-38
4.6160822 -2.038904 0.023629021 1.0879084e-38
4.5289216 -2.0393789 0.050965879 1.0233715e-38
4.6525016 -2.0390227 0.073161148 9.219563e-39
4.6529427 -2.0391526 0.098467626 1.0879084e-38
4.530211 -2.0397587 0.12495213 1.0233715e-38
4.653471 -2.0395455 0.17439604 8.9429761e-39
4.618227 -2.0398104 0.19949 9.8649324e-39
4.6531606 -2.0398099 0.22501552 8.2054111e-39
9.0467005 -2.0235527 0.32336381 1.0141519e-38
4.7050419 -2.0398812 0.27678153 9.7727368e-39
8.6755877 -2.0254195 0.40997973 1.2630801e-38
4.5806746 -2.0406013 0.3239581 1.1340062e-38
8.7252874 -2.0257225 0.50468522 1.2354214e-38
8.8639088 -2.0254672 0.55732763 1.1432258e-38
8.9144316 -2.0255337 0.60721034 1.1155671e-38
8.9471245 -2.0256665 0.65669656 1.0694693e-38
8.8742599 -2.0261717 0.70036978 1.1708845e-38
4.6612034 -2.0411005 0.47903123 1.1247867e-38
8.8331385 -2.026809 0.79273605 1.0418106e-38
4.640173 -2.0414374 0.52841157 1.0602497e-38
4.620708 -2.0416358 0.55225199 8.6663892e-39
4.6011262 -2.0418334 0.57589853 9.219563e-39
4.5639219 -2.0420892 0.59777188 9.1273674e-39
4.5616169 -2.0422273 0.62260735 1.1155671e-38
4.6291409 -2.0421352 0.6544776 1.0879084e-38
4.5539241 -2.0426438 0.69703645 8.5741936e-39
4.586019 -2.0426712 0.72589082 9.219563e-39
4.6353903 -2.0426457 0.75722325 1.0602497e-38
4.6812544 -2.042769 0.81455219 9.4039542e-39
4.6603999 -2.0429683 0.83759749 1.0049324e-38
4.6568384 -2.0431137 0.86293477 9.4039542e-39
8.8657007 -2.0319219 -1.8280636 8.6663892e-39
8.8760462 -2.0321448 -1.7806762 1.0418106e-38
8.9377527 -2.0321057 -1.7440786 1.0786889e-38
8.9476585 -2.0323324 -1.6963152 9.8649324e-39
8.9228363 -2.0327342 -1.6416322 1.0694693e-38
8.9494638 -2.032876 -1.5972919 1.1524454e-38
8.9758759 -2.0330203 -1.5527225 1.1340062e-38
8.9847794 -2.033252 -1.5047621 1.2354214e-38
8.993433 -2.0334849 -1.4567556 1.3183975e-38
9.0018339 -2.0337191 -1.4087045 1.1155671e-38
9.0099831 -2.0339546 -1.3606101 1.1247867e-38
9.0525866 -2.0340238 -1.3180739 1.2354214e-38
9.0776291 -2.0341792 -1.2724242 1.1616649e-38
9.1024466 -2.0343368 -1.226553 1.0418106e-38
9.1270361 -2.0344965 -1.1804614 1.097128e-38
9.1513968 -2.0346584 -1.1341506 1.3091779e-38
9.1994267 -2.0349884 -1.0408759 1.2538606e-38
4.6700926 -2.0561867 -0.42955697 1.1708845e-38
4.6731744 -2.0563159 -0.40415677 1.0325911e-38
4.6411901 -2.0566049 -0.37478179 8.2976067e-39
9.2402411 -2.0359113 -0.84608239 9.0351717e-39
4.5858974 -2.0576975 -0.21737303 8.3898023e-39
4.5546427 -2.0581119 -0.16495746 9.219563e-39
4.5914202 -2.0580924 -0.1424745 8.2054111e-39
4.5929999 -2.0582252 -0.11749019 1.3091779e-38
4.5944481 -2.0583584 -0.092497937 1.1801041e-38
4.5782099 -2.0585663 -0.06661959 1.0233715e-38
4.5618324 -2.0587735 -0.040918529 8.2054111e-39
4.6331372 -2.0586159 -0.018870536 1.1616649e-38
4.5462308 -2.0591145 0.0093456162 1.0049324e-38
4.6172981 -2.0589614 0.032047089 1.1155671e-38
4.5300984 -2.0594554 0.059259623 1.0418106e-38
4.5657721 -2.0594487 0.083266042 8.4819979e-39
4.5310168 -2.059726 0.10858292 8.8507805e-39
4.5312829 -2.0598621 0.13324749 1.0786889e-38
4.5489974 -2.0599294 0.1578622 8.2976067e-39
4.5138488 -2.0602047 0.182538 8.8507805e-39
4.6191926 -2.059932 0.20791058 9.4039542e-39
8.9779215 -2.0432541 0.2888819 1.0141519e-38
9.0123339 -2.0433891 0.33746207 1.0786889e-38
8.6950216 -2.0448627 0.37822115 1.2538606e-38
8.6762486 -2.045192 0.42418316 1.0786889e-38
4.5814633 -2.0607722 0.3323248 1.0786889e-38
8.8487654 -2.0450678 0.52375567 1.1985432e-38
4.5619588 -2.0611217 0.38139376 1.2169823e-38
8.897254 -2.0454175 0.62088448 1.2907388e-38
8.8596745 -2.0458188 0.66648126 1.1063476e-38
8.874506 -2.0460296 0.71485555 1.0786889e-38
4.6617713 -2.0613196 0.48751226 1.0879084e-38
8.8858576 -2.0465188 0.81087267 1.0141519e-38
4.6036506 -2.0619471 0.559255 8.9429761e-39
4.6015563 -2.0620944 0.5842936 9.7727368e-39
4.5468159 -2.062422 0.60451037 9.1273674e-39
4.5619802 -2.0625095 0.63094598 1.2262019e-38
4.5420241 -2.062716 0.65397871 1.0233715e-38
4.556911 -2.0628054 0.68057168 8.9429761e-39
4.5541816 -2.0629539 0.70536393 8.2976067e-39
4.6181164 -2.0630262 0.76351404 8.5741936e-39
4.667254 -2.0630102 0.79535729 8.2976067e-39
4.6813445 -2.0631089 0.82306081 8.8507805e-39
4.6604571 -2.063319 0.84607625 9.5883455e-39
4.6568599 -2.0634739 0.87140846 8.5741936e-39
4.635746 -2.0636833 0.89411283 8.3898023e-39
4.631897 -2.0638385 0.91931492 8.3898023e-39
4.6279168 -2.0639942 0.94449651 8.4819979e-39
4.6064639 -2.0642023 0.96677572 8.2054111e-39
4.6060386 -2.0647786 1.0700727 8.2054111e-39
4.6275239 -2.0719883 -1.0438752 8.9429761e-39
4.6460495 -2.0723863 -0.96824825 9.957128e-39
4.6519608 -2.0725205 -0.94297576 8.9429761e-39
8.8896561 -2.0506752 -1.7232059 1.0602497e-38
8.8822374 -2.0510235 -1.6721956 9.4961499e-39
8.9090204 -2.0511913 -1.6281511 1.0694693e-38
8.9528484 -2.0512717 -1.5872043 1.0325911e-38
8.944665 -2.0516233 -1.536136 1.097128e-38
8.9880791 -2.0517085 -1.4946421 1.2538606e-38
8.9966869 -2.0519741 -1.446628 1.2538606e-38
9.005044 -2.0522406 -1.3985693 1.1708845e-38
9.0651722 -2.0522463 -1.359092 1.1708845e-38
9.0383577 -2.052691 -1.305108 1.1708845e-38
9.0807133 -2.0527892 -1.2622193 1.2722997e-38
9.1054878 -2.0529766 -1.2163252 1.097128e-38
9.1300344 -2.0531662 -1.1702111 1.2999584e-38
9.1543531 -2.0533581 -1.1238779 1.4198127e-38
9.1958637 -2.0534682 -1.0796555 8.5741936e-39
9.2022972 -2.0537491 -1.0305592 1.2815193e-38
9.2084723 -2.0540311 -0.98142976 1.3552758e-38
4.6056294 -2.0761607 -0.38982034 1.1155671e-38
9.2200508 -2.054599 -0.88307726 9.1273674e-39
4.5463872 -2.0770667 -0.2827684 1.0049324e-38
4.6012259 -2.0769715 -0.26281834 8.9429761e-39
4.5880098 -2.0773461 -0.21133731 9.6805411e-39
3.2928736 -2.0832999 -0.088559225 9.5883455e-39
4.5567064 -2.0777986 -0.15895097 1.1801041e-38
4.5759225 -2.0778694 -0.13529573 8.5741936e-39
4.5950198 -2.0779419 -0.11144834 1.4935692e-38
4.5613418 -2.0782447 -0.084545814 1.0602497e-38
4.5801835 -2.0783188 -0.060591675 9.4961499e-39
4.5286593 -2.0786953 -0.033364575 9.4039542e-39
4.635066 -2.0783975 -0.012791911 9.6805411e-39
4.5481339 -2.0789216 0.015343539 1.0879084e-38
4.6191797 -2.0787792 0.038110796 1.0694693e-38
4.567102 -2.0791521 0.06443689 1.097128e-38
4.5676069 -2.0793052 0.089281753 1.0602497e-38
4.5328283 -2.0796025 0.11456629 1.0510302e-38
4.4100285 -2.0802538 0.1401176 1.0879084e-38
4.4980297 -2.0800502 0.16396588 1.2815193e-38
8.8924866 -2.0626926 0.20280159 1.0879084e-38
8.8922091 -2.0629904 0.25029182 1.4474714e-38
8.9795628 -2.0629447 0.29898736 1.2262019e-38
8.9963551 -2.0631788 0.34726569 1.4843496e-38
8.6965809 -2.0646343 0.38806391 1.4659105e-38
8.6953344 -2.0649295 0.43452585 1.2999584e-38
8.728981 -2.0650926 0.48219967 1.1708845e-38
8.8501902 -2.064929 0.53374034 1.2262019e-38
4.563518 -2.0811834 0.38740462 1.2907388e-38
8.8985882 -2.0653419 0.63091367 1.3368366e-38
8.8434162 -2.0658414 0.67549813 1.1340062e-38
4.577116 -2.0816007 0.46291831 1.1708845e-38
4.5755343 -2.0817626 0.48781008 1.0049324e-38
8.8870173 -2.0665748 0.82089043 1.0233715e-38
4.5369267 -2.082211 0.53487784 8.6663892e-39
4.5174499 -2.0824342 0.5581218 1.0879084e-38
4.4453244 -2.0828385 0.57658756 9.4961499e-39
4.5481691 -2.0826383 0.61050618 1.0325911e-38
4.5633092 -2.0827429 0.63695574 1.2538606e-38
4.5433316 -2.0829666 0.65996987 1.0049324e-38
4.5581942 -2.0830734 0.68657649 9.957128e-39
4.5554414 -2.0832391 0.71136606 9.4961499e-39
4.5176497 -2.0835192 0.73198622 8.9429761e-39
4.6684308 -2.0833492 0.8014639 8.3898023e-39
4.6368313 -2.0840924 0.90018982 1.0418106e-38
4.615592 -2.0843179 0.92267263 8.2054111e-39
4.6289558 -2.0844386 0.95056599 9.3117586e-39
4.6074824 -2.0846636 0.97282517 9.3117586e-39
4.6378746 -2.0847356 1.0038449 8.5741936e-39
4.6161532 -2.0849607 1.0259687 1.0233715e-38
4.6116233 -2.0851357 1.051057 9.6805411e-39
4.6069613 -2.0853109 1.0761213 9.8649324e-39
4.5921898 -2.0858386 1.151163 8.2054111e-39
4.6089683 -2.0872762 1.3921179 9.219563e-39
4.6304045 -2.0986505 -1.0393269 8.2976067e-39
8.9912758 -2.0850751 -1.4872723 8.5741936e-39
8.9998531 -2.0853624 -1.4392525 8.3898023e-39
9.0335951 -2.0858786 -1.3459452 9.4961499e-39
9.0414305 -2.086169 -1.2977058 8.6663892e-39
9.0837584 -2.0863407 -1.2547897 9.7727368e-39
9.1330194 -2.0868108 -1.1627498 9.8649324e-39
9.1573076 -2.0870488 -1.116401 9.7727368e-39
4.5670815 -2.1027119 -0.43089744 1.0141519e-38
9.2113333 -2.0878308 -0.9739179 1.0141519e-38
9.2521372 -2.0880201 -0.92883992 8.6663892e-39
4.5487676 -2.1037366 -0.27827358 1.0418106e-38
4.4985557 -2.1040492 -0.24877375 8.4819979e-39
4.590344 -2.1040933 -0.20681565 8.4819979e-39
4.5221596 -2.1044545 -0.17661408 8.5741936e-39
4.4713273 -2.1047606 -0.14835587 1.1616649e-38
4.5972881 -2.1047175 -0.10692228 1.2354214e-38
4.5811448 -2.1049237 -0.080984756 8.7585848e-39
4.5308762 -2.1053815 -0.028881552 8.8507805e-39
4.5143123 -2.1055846 -0.0035686526 9.0351717e-39
4.4976125 -2.105787 0.021565203 8.2054111e-39
4.5159216 -2.105896 0.045552514 9.7727368e-39
4.4638124 -2.1061893 0.071292847 9.0351717e-39
4.4818659 -2.1062989 0.095286541 9.219563e-39
4.5349479 -2.1063211 0.11905181 9.7727368e-39
4.4824414 -2.1066105 0.1440625 9.3117586e-39
4.5001163 -2.1067235 0.16842884 1.1893236e-38
8.8945694 -2.0962093 0.21010742 1.1155671e-38
8.8942604 -2.0965149 0.25759742 1.4290323e-38
8.9464302 -2.0966966 0.30584371 1.1708845e-38
8.9983435 -2.0968826 0.35463855 1.5212279e-38
9.0148487 -2.0971532 0.40310681 1.3737149e-38
8.9959574 -2.0975051 0.45069501 1.3368366e-38
9.0119534 -2.0977781 0.49933341 1.1985432e-38
4.5840955 -2.1077974 0.36779571 1.0325911e-38
8.8675728 -2.0987084 0.589086 1.1063476e-38
8.9003906 -2.0989435 0.63822287 1.0879084e-38
4.475173 -2.1085064 0.43660146 8.4819979e-39
4.4386487 -2.1087384 0.45878795 9.4039542e-39
4.4897141 -2.1087909 0.48646095 8.4819979e-39
4.4492044 -2.1093419 0.55680603 1.0418106e-38
4.4471407 -2.1095023 0.58101588 8.8507805e-39
4.5674658 -2.1094358 0.61663204 9.1273674e-39
4.5650864 -2.109601 0.6414603 8.8507805e-39
4.5450931 -2.1097977 0.66446143 8.3898023e-39
4.5424638 -2.1099627 0.68917191 8.9429761e-39
4.565762 -2.1120374 1.0212373 9.219563e-39
4.5439768 -2.1122298 1.0428705 8.4819979e-39
4.5496893 -2.122967 -0.49495289 8.9429761e-39
4.545455 -2.1236453 -0.3935574 8.6663892e-39
4.5414968 -2.1244826 -0.26790872 9.4039542e-39
4.4640698 -2.1255174 -0.13798293 1.1155671e-38
4.5900354 -2.1255007 -0.096562773 9.8649324e-39
4.4861312 -2.1259418 -0.065898389 8.4819979e-39
4.5070701 -2.1263731 0.0067995568 9.3117586e-39
4.4025302 -2.1267982 0.034821328 8.5741936e-39
4.4559712 -2.1268239 0.057376221 8.4819979e-39
4.4038577 -2.1271117 0.082846038 8.3898023e-39
4.4746346 -2.1270993 0.10565808 9.0351717e-39
4.4749889 -2.1272593 0.13004525 8.2976067e-39
4.4400601 -2.127502 0.15466824 8.4819979e-39
4.4928927 -2.1275396 0.17879836 1.0786889e-38
8.9225082 -2.117625 0.22014363 1.1063476e-38
8.8870478 -2.1180186 0.26749977 1.3460562e-38
8.9567995 -2.1181779 0.31599143 1.2538606e-38
8.9559917 -2.1184952 0.36384371 1.3183975e-38
8.9549332 -2.1188133 0.4116911 1.3552758e-38
9.0063353 -2.1190209 0.46111336 1.4290323e-38
9.0047665 -2.1193416 0.50922298 1.0786889e-38
4.4363832 -2.1289463 0.3724682 9.4039542e-39
4.5231395 -2.1289327 0.40066609 8.3898023e-39
4.4692826 -2.1292014 0.42261857 9.4961499e-39
4.4328771 -2.1294327 0.44499981 8.9429761e-39
4.4314556 -2.1295953 0.46916366 8.9429761e-39
4.4825239 -2.1296601 0.49683124 8.5741936e-39
4.4282327 -2.1299212 0.51746738 8.3898023e-39
4.4420218 -2.1302171 0.56718051 1.0049324e-38
4.4399605 -2.1303816 0.59139055 8.5741936e-39
4.4377718 -2.1305461 0.61558944 1.0510302e-38
4.4479222 -2.1310134 0.69001675 9.5883455e-39
4.4568691 -2.1314864 0.7648685 8.8507805e-39
4.5368457 -2.1332035 1.0532345 8.2976067e-39
4.5384889 -2.1727343 -0.40568379 8.5741936e-39
4.457448 -2.1748781 -0.15000206 1.0233715e-38
4.4591112 -2.1750779 -0.12566938 8.9429761e-39
4.3942466 -2.1759357 -0.025121473 8.7585848e-39
4.3961411 -2.1763306 0.022883592 1.0141519e-38
4.3968997 -2.1765282 0.046892904 8.2976067e-39
4.3975329 -2.1767259 0.070905864 8.6663892e-39
4.3980403 -2.1769235 0.094921805 8.4819979e-39
3.7835758 -2.1778054 0.16869639 8.7585848e-39
8.9163761 -2.1757948 0.20205915 9.7727368e-39
8.8809795 -2.1762016 0.24946287 1.1432258e-38
8.9156427 -2.1765811 0.29740492 1.2169823e-38
8.9500542 -2.1769643 0.34571183 1.1893236e-38
8.9490595 -2.1773591 0.39356002 1.3276171e-38
9.0005283 -2.177743 0.44291174 1.1708845e-38
8.9990234 -2.1781404 0.49102288 1.1893236e-38
8.9972687 -2.1785376 0.5391255 8.9429761e-39
4.4645615 -2.1792955 0.38622242 8.2054111e-39
4.4283032 -2.179498 0.40884301 8.4819979e-39
4.4270406 -2.179698 0.43301544 8.8507805e-39
4.4363503 -2.1807008 0.5551821 9.3117586e-39
4.4321656 -2.1811018 0.60359621 9.8649324e-39
4.4424162 -2.1817107 0.67800868 8.8507805e-39
4.439744 -2.1819117 0.70225126 8.3898023e-39
4.4340186 -2.1823137 0.75069284 8.9429761e-39
4.4837589 -2.1997528 -0.4271386 8.6663892e-39
4.5566511 -2.1999869 -0.41138923 8.2054111e-39
4.4806032 -2.2008796 -0.30283681 9.6805411e-39
4.5029202 -2.2013376 -0.25555724 9.5883455e-39
4.474153 -2.2019973 -0.17911845 8.5741936e-39
4.4584436 -2.2022111 -0.15344161 1.0233715e-38
4.4601331 -2.2024348 -0.12911095 1.2538606e-38
4.48068 -2.2028942 -0.081412792 8.2054111e-39
4.3766603 -2.2030358 -0.051589828 8.9429761e-39
4.3953772 -2.2032692 -0.028492969 1.0879084e-38
4.3973231 -2.2037084 0.019509641 1.2262019e-38
4.398108 -2.203928 0.043517932 9.4961499e-39
4.398767 -2.2041471 0.067530014 1.1155671e-38
4.3993001 -2.2043664 0.091545202 9.3117586e-39
4.452436 -2.2046442 0.11480601 9.1273674e-39
4.3824115 -2.2047837 0.13974258 1.0141519e-38
3.7673378 -2.2042561 0.16605885 1.1616649e-38
4.4177532 -2.2052636 0.18764785 1.0694693e-38
8.8824005 -2.2113192 0.24118647 1.3644953e-38
8.8819628 -2.2117505 0.28867447 1.456691e-38
8.8988504 -2.2122064 0.33645946 1.2907388e-38
8.9330616 -2.2126892 0.38481614 1.2722997e-38
8.9670134 -2.2131746 0.43353531 1.3276171e-38
4.4152827 -2.2065766 0.33229992 1.0418106e-38
8.9814358 -2.2140708 0.53005177 1.2630801e-38
4.466135 -2.2070992 0.38277081 9.4039542e-39
9.0123959 -2.2149982 0.62774968 9.3117586e-39
4.4286647 -2.2074788 0.42960444 9.8649324e-39
4.4258122 -2.2079148 0.47793052 9.8649324e-39
4.4399824 -2.2083838 0.52753526 8.9429761e-39
4.4381061 -2.2086017 0.55175996 1.0325911e-38
4.4361033 -2.2088196 0.57597452 9.1273674e-39
4.4339738 -2.2090371 0.60017824 1.1247867e-38
4.4317174 -2.2092545 0.62437052 8.6663892e-39
4.426825 -2.2096882 0.67271793 1.1063476e-38
4.441658 -2.2099442 0.69882423 9.0351717e-39
4.4359851 -2.2103779 0.74727172 1.0049324e-38
4.4642153 -2.2120268 0.92463398 8.4819979e-39
4.5187473 -2.2444012 -0.88765675 8.4819979e-39
4.4501271 -2.2488167 -0.49405298 1.0049324e-38
4.4665918 -2.250242 -0.37230113 8.6663892e-39
4.4749389 -2.2510972 -0.29905778 9.219563e-39
4.390017 -2.2513449 -0.2658073 8.5741936e-39
4.4121051 -2.2519135 -0.21937887 8.6663892e-39
4.400527 -2.2527421 -0.14570694 1.0325911e-38
4.4548607 -2.2530625 -0.12529036 1.2907388e-38
4.5792742 -2.253449 -0.10879242 8.6663892e-39
4.4053226 -2.2535791 -0.073529139 8.3898023e-39
4.371563 -2.253824 -0.047582578 1.0141519e-38
4.3903317 -2.2541187 -0.024528675 1.0602497e-38
4.3914213 -2.2543962 -0.00053291861 1.1063476e-38
4.392386 -2.2546735 0.023468226 1.3183975e-38
4.3932247 -2.2549508 0.04747409 1.1063476e-38
4.3939381 -2.2552278 0.071484022 1.244641e-38
4.3945251 -2.2555048 0.095497355 9.5883455e-39
3.7622621 -2.2549016 0.13002633 9.0351717e-39
4.3425918 -2.2559817 0.14413162 1.1985432e-38
3.7451549 -2.2553518 0.17154618 1.2815193e-38
3.7803833 -2.2556441 0.19212949 1.2538606e-38
8.9306831 -2.2642853 0.23522396 1.0141519e-38
8.8600416 -2.264715 0.28231525 1.2722997e-38
8.877039 -2.2652895 0.32996872 1.4659105e-38
8.8937855 -2.2658658 0.37780255 1.3829344e-38
8.9278517 -2.2664766 0.42625958 1.5027888e-38
8.9265184 -2.2670233 0.47400594 1.3276171e-38
8.942502 -2.2676044 0.52237284 1.2354214e-38
8.9757919 -2.2682233 0.57163489 1.0141519e-38
9.0088167 -2.2688458 0.62125438 1.0879084e-38
9.0064611 -2.2693958 0.66942203 1.0510302e-38
9.0038538 -2.2699451 0.71757662 9.5883455e-39
4.4043636 -2.259948 0.48072445 9.1273674e-39
4.4203467 -2.2602634 0.50596637 9.1273674e-39
4.4186583 -2.2605381 0.53011209 8.3898023e-39
4.4343691 -2.2608562 0.55561179 9.4039542e-39
4.4149027 -2.2610869 0.57837528 8.9429761e-39
4.4303455 -2.2614064 0.60403812 9.0351717e-39
4.428144 -2.2616811 0.6282348 8.3898023e-39
4.4233603 -2.2622292 0.67659199 1.0602497e-38
4.4207783 -2.2625029 0.70075113 9.957128e-39
4.4006071 -2.2627254 0.72289199 9.0351717e-39
4.4501414 -2.2631524 0.75321883 9.219563e-39
4.4506445 -2.2759032 -0.49817455 9.4961499e-39
4.3880315 -2.2764375 -0.43984255 9.5883455e-39
4.3738823 -2.2767253 -0.41352874 9.219563e-39
4.4003711 -2.2776997 -0.34381726 8.5741936e-39
4.4031415 -2.2780147 -0.31977218 9.6805411e-39
4.440742 -2.2783976 -0.29946333 8.2054111e-39
4.3908172 -2.2786086 -0.26985651 8.4819979e-39
4.4129629 -2.2792721 -0.22345671 8.4819979e-39
4.3800764 -2.2795081 -0.19632977 9.1273674e-39
4.3995957 -2.2798593 -0.17381002 1.0786889e-38
4.4014759 -2.2801712 -0.1497713 1.097128e-38
4.4558344 -2.2806101 -0.12942368 1.1708845e-38
4.5802679 -2.28123 -0.11308316 8.4819979e-39
4.3712678 -2.2810156 -0.075500965 1.0418106e-38
4.3901854 -2.2813699 -0.052569866 1.2538606e-38
4.3914309 -2.2816792 -0.028582051 8.7585848e-39
4.3925505 -2.2819879 -0.0045880475 1.2630801e-38
4.3935447 -2.2822964 0.019411502 1.3091779e-38
4.394413 -2.2826047 0.04341593 1.1340062e-38
4.3951559 -2.2829125 0.067424588 1.2077628e-38
4.3430529 -2.2830608 0.092655502 9.7727368e-39
4.3435388 -2.2833643 0.11639459 1.0049324e-38
4.3614764 -2.2837229 0.13991371 1.2169823e-38
4.3617144 -2.2840266 0.16374861 1.3091779e-38
3.7641761 -2.282367 0.18888138 1.2630801e-38
4.4145503 -2.2848101 0.21158221 9.4961499e-39
8.8614988 -2.3003175 0.27261078 1.1985432e-38
8.8434019 -2.3008573 0.31976613 1.2354214e-38
8.9129353 -2.3017058 0.36838391 1.1708845e-38
8.9119139 -2.3023086 0.41604522 1.3829344e-38
8.9106426 -2.3029106 0.46370053 1.4290323e-38
8.9442568 -2.3036432 0.51256043 1.3829344e-38
8.9776077 -2.3043797 0.56177968 1.0418106e-38
4.3747902 -2.2871106 0.4028306 9.6805411e-39
4.337285 -2.2875695 0.44867903 8.7585848e-39
4.351944 -2.2882357 0.49723712 8.6663892e-39
4.3796887 -2.2895753 0.59535092 9.6805411e-39
4.3950453 -2.2899508 0.62089121 9.0351717e-39
4.4227767 -2.2910063 0.69664794 9.6805411e-39
4.4026327 -2.2912214 0.71881396 9.6805411e-39
4.4187727 -2.2931707 0.86789185 9.219563e-39
4.3782716 -2.2968781 -0.52518731 8.2976067e-39
4.3819513 -2.2972214 -0.50126487 8.6663892e-39
4.3889341 -2.2979076 -0.4533639 8.6663892e-39
4.3922377 -2.2982502 -0.42938662 1.0141519e-38
4.3954153 -2.2985928 -0.40539238 1.0325911e-38
4.3984675 -2.2989352 -0.38138181 8.5741936e-39
4.4013934 -2.2992773 -0.35735556 8.2054111e-39
4.4041939 -2.299619 -0.33331433 1.2722997e-38
4.4243441 -2.2999966 -0.31115595 9.5883455e-39
4.4094172 -2.300302 -0.28518954 1.1432258e-38
4.4293342 -2.3006816 -0.26282135 8.5741936e-39
4.3966327 -2.3009441 -0.23539025 8.8507805e-39
4.346261 -2.3011599 -0.20678331 8.6663892e-39
4.4008303 -2.3016222 -0.18734995 1.0694693e-38
